# .PCD v0.7 - Point Cloud Data file format
VERSION 0.7
FIELDS x y z rgb normal_x normal_y normal_z curvature
SIZE 4 4 4 4 4 4 4 4
TYPE F F F U F F F F
COUNT 1 1 1 1 1 1 1 1
WIDTH 803
HEIGHT 1
VIEWPOINT 0 0 0 1 0 0 0
POINTS 803
DATA ascii
13090.547 -4331.7671 491.78714 4291745247 0 0 -295294.47 0
13023.811 -5609.2847 61.800293 4284110696 -0 0 507643.38 0
13067.329 -4517.1484 463.25537 4291745247 0 -0 35765.953 0
13105.861 -5472.689 450.5574 4293714884 -469.06519 194.19127 0 0
13268.849 -5832.3818 61.800293 4291151562 -0 0 517197.06 0
13147.949 -4621.8096 463.25537 4291745247 0 0 277714.53 0
13389.083 -4888.5571 491.78714 4291745247 -0 -0 -598968.25 0
13072.137 -5162.1606 61.800293 4286741127 -0 0 507643.38 0
13305.647 -5596.2466 491.78711 4291745247 -0 -0 -598968.25 0
13371.16 -5001.7549 61.800293 4284110696 -0 0 543616 0
13343.122 -4216.6211 438.18405 4291350489 0 -64232.812 0 0
13044.754 -4804.0952 476.51559 4292538093 2199.0574 0 -4440.0571 0
13046.614 -5047.1035 61.800293 4284110696 -0 0 277804.75 0
13335.158 -5668.2275 491.78711 4291745247 -0 -0 -598968.25 0
13423.401 -4668.8438 491.78711 4291745247 -0 -0 -295294.47 0
13387.939 -5740.7153 260.32086 4293714884 66.342926 503.44601 0 0
13275.373 -5450.0396 491.78711 4291745247 -0 -0 -598968.25 0
13200.776 -5102.1387 491.78711 4291745247 -0 -0 -598968.25 0
13070.673 -6171.626 61.800293 4286677890 -0 0 507643.38 0
13182.973 -4783.415 463.25537 4291745247 0 0 277714.53 0
13281.114 -7128.4321 463.25537 4291745247 0 -0 151484.91 0
13319.73 -5614.9775 491.78711 4291745247 -0 -0 -598968.25 0
13033.777 -7145.5835 470.73248 4292538093 2446.1296 0 -3952.0781 0
13284.452 -5278.0249 61.800293 4284110696 -0 0 517197.06 0
13372.326 -5152.9189 491.78708 4291745247 -0 -0 -598968.25 0
13077.099 -4962.2285 491.78711 4291745247 0 0 -598968.25 0
13162.02 -6339.4307 491.78711 4291745247 0 0 -598968.25 0
13331.711 -6770.563 463.25537 4291745247 0 -0 151484.91 0
13295.469 -6542.6387 502.10693 4291745247 -0 -0 -295294.47 0
13331.842 -5483.6064 491.78711 4291745247 -0 -0 -598968.25 0
13050.291 -6657.0518 61.800293 4285358194 -0 0 145896.98 0
13152.434 -6257.8408 61.800293 4284110696 -0 0 507643.38 0
13193.187 -4935.2744 491.78711 4291745247 -0 -0 -598968.25 0
13345.449 -4216.6211 86.752075 4291613661 0 -68819.086 -0 0
13280.574 -6373.1064 491.78711 4291745247 0 0 -598968.25 0
13271.458 -4676.4087 61.800293 4284110696 -0 0 482970.09 0
13252.218 -6993.2842 502.10696 4291745247 0 0 -295294.47 0
13431.66 -6597.7188 495.75909 4292538093 -98216.383 -0 0 0
13337.824 -6404.9307 473.04895 4291745247 -0 -7065.6738 -0 0
13409.188 -4241.0425 463.25537 4291745247 0 0 71039.719 0
13185.848 -4914.8872 491.78711 4291745247 -0 -0 -598968.25 0
13318.035 -4549.8643 463.25537 4291745247 0 0 277714.53 0
13041.386 -4229.5781 463.25537 4291745247 -0 0 40893.176 0
13024.364 -4393.4209 61.800293 4284110696 -0 0 277804.75 0
13330.229 -4773.8027 463.25537 4291745247 0 0 277714.53 0
13403.82 -5832.7041 491.78711 4291745247 -0 -0 -598968.25 0
13335.078 -4945.9331 491.78708 4291745247 -0 -0 -598968.25 0
13282.461 -6103.9336 491.78711 4291745247 0 0 -598968.25 0
13272.91 -7224.9004 220.64319 4292538093 0 9005.6602 0 0
13121.77 -4790.1274 463.25537 4291745247 0 0 277714.53 0
13197.403 -7131.6377 61.800293 4283056721 0 0 34226.984 0
13239.602 -5439.5938 61.800293 4285955210 -0 0 482970.09 0
13386.98 -6799.5054 199.29797 4293714884 66.342926 503.44601 0 0
13232.957 -5385.9077 61.800293 4284110696 -0 0 482970.09 0
13346.298 -5617.7471 61.800297 4284110696 -0 0 543616 0
13103.147 -6529.2949 295.12894 4293714884 309.25476 -402.89505 0 0
13234.428 -6355.1216 491.78711 4291745247 0 0 -598968.25 0
13225.549 -4592.9834 463.25537 4291745247 0 0 277714.53 0
13155.207 -6247.6035 61.800293 4284110696 -0 0 507643.38 0
13312.665 -7168.2104 61.800293 4281413185 -0 0 517197.06 0
13072.734 -5847.2036 491.78711 4291745247 0 0 -598968.25 0
13115.836 -4318.3145 61.800293 4284110696 -0 0 277804.75 0
13352.496 -6948.979 61.800293 4284110696 0 0 423699.47 0
13173.084 -4531.2002 491.78711 4291745247 0 0 -295294.47 0
13109.857 -6020.8716 61.800297 4284110696 -0 0 507643.38 0
13346.674 -4611.3345 463.25537 4291745247 0 0 277714.53 0
13417.551 -6900.4814 153.11435 4292538093 -29.800491 0 16.248531 0
13199.751 -4568.3706 61.800293 4287467155 -0 0 482970.09 0
13396.562 -6503.0278 502.10696 4291745247 -0 -0 -295294.47 0
13071.08 -6135.5645 147.42999 4292538093 508.01596 0 0 0
13222.917 -7051.9868 61.800293 4292728214 -0 0 517197.06 0
13100.746 -5737.6699 310.35953 4293714884 66.170151 503.44601 0 0
13052.711 -4729.0527 61.800293 4284110696 -0 0 277804.75 0
13195.029 -5699.874 61.800293 4285227112 -0 0 482970.09 0
13032.133 -4923.1821 61.800293 4284110696 -0 0 277804.75 0
13091.521 -7037.6045 463.25537 4291745247 -0 0 297395.44 0
13284.538 -5101.8633 61.800293 4285821264 -0 0 517197.06 0
13345.648 -7192.0908 178.96614 4292538093 0 73345.531 0 0
13037.605 -6645.6885 61.800293 4284110696 -0 0 145896.98 0
13126.125 -5820.8428 491.78711 4291745247 0 0 -598968.25 0
13369.266 -5911.7031 491.78711 4291745247 -0 -0 -598968.25 0
13411.391 -4747.2881 463.25537 4291745247 0 0 145543.02 0
13431.66 -5268.6694 485.19638 4292538093 -50801.578 0 0 0
13390.447 -6474.0518 61.800297 4285688690 0 0 423699.47 0
13391.763 -5742.8174 266.31226 4293714884 402.89505 309.25476 0 0
13201.191 -5225.4697 61.800293 4284110696 -0 0 482970.09 0
13331.848 -4980.4712 491.78711 4291745247 -0 -0 -598968.25 0
13382.172 -6404.9307 501.00842 4291745247 -0 -3869.1077 -0 0
13392.592 -4582.644 463.25537 4291745247 0 0 145543.02 0
13363.805 -6087.9849 61.800293 4284110696 -0 0 543616 0
13080.242 -5345.1436 61.800293 4284110696 -0 0 507643.38 0
13375.46 -5308.3184 61.800293 4284110696 -0 0 543616 0
13202.348 -6708.4111 502.10693 4291745247 -0 -0 -295294.47 0
13201.887 -4116.4404 491.78711 4291745247 -0 -0 -295294.47 0
13255.113 -4216.6211 277.05518 4291745247 -0 -69781.047 -0 0
13407.268 -4216.6211 362.6582 4291876833 0 -64232.812 0 0
13149.573 -6547.5776 463.2554 4291745247 -0 0 297395.44 0
13212.348 -6280.1924 491.78711 4291745247 0 0 -598968.25 0
13431.66 -4669.3643 486.49545 4292538093 -50801.578 0 0 0
13346.968 -4927.2251 61.800289 4286217049 -0 0 543616 0
13071.08 -6412.7549 146.94191 4292538093 508.01596 0 0 0
13094.905 -5740.8008 422.52927 4293714884 469.23795 -194.19127 0 0
13374.427 -6404.9307 466.38876 4291745247 0 -527.25659 0 0
13112.226 -5205.2773 491.78711 4291745247 0 0 -598968.25 0
13371.849 -6686.8589 61.800293 4284832362 0 0 423699.47 0
13234.277 -5571.8569 61.800293 4283321683 -0 0 482970.09 0
13040.86 -5918.4795 154.68013 4292538093 0 0 5541.6543 0
13178.368 -5323.2412 491.78711 4291745247 -0 -0 -598968.25 0
13175.576 -4760.4238 463.25537 4291745247 0 0 277714.53 0
13094.83 -5740.9824 423.07959 4293714884 -469.23795 194.19127 0 0
13347.951 -4216.6211 397.10092 4291745247 0 -64232.812 0 0
13064.598 -6324.7256 154.68013 4292538093 0 0 5541.6543 0
13024.997 -6599.374 463.25537 4291745247 0 0 31643.303 0
13211.604 -4749.396 463.25537 4291745247 0 0 277714.53 0
13137.596 -5553.3184 61.800293 4284110696 -0 0 507643.38 0
13235.915 -6482.2061 502.10693 4291745247 -0 -0 -295294.47 0
13314.777 -7130.8154 463.25537 4291745247 0 -0 151484.91 0
13167.538 -6454.6899 61.800293 4284110696 -0 0 482970.09 0
13290.732 -7224.9004 138.35715 4292538093 0 35687.758 0 0
13101.858 -6361.1914 491.78711 4291745247 0 0 -598968.25 0
13285.67 -6847.7715 463.25537 4291745247 0 -0 151484.91 0
13205.951 -7168.0186 61.800293 4284110696 0 0 34226.984 0
13056.74 -4070.9539 485.01242 4292538093 98216.391 -0 0 0
13220.164 -6959.9224 463.25537 4291745247 0 -0 72362.656 0
13166.752 -4428.2754 463.25537 4291745247 0 0 277714.53 0
13105.803 -4466.8564 463.25537 4291745247 -0 0 70405.086 0
13028.107 -4528.8926 61.800293 4284108127 -0 0 277804.75 0
13062.586 -4475.4795 491.78711 4291745247 0 0 -295294.47 0
13420.896 -4461.2979 463.25537 4291745247 0 0 19605.674 0
13036.814 -4554.7163 472.42786 4292538093 2395.8945 0 -4314.7578 0
13343.153 -7192.0908 106.45612 4292075475 0 73345.531 0 0
13188.17 -4724.8481 61.800297 4283584352 -0 0 482970.09 0
13237.109 -7035.0405 463.25534 4291745247 0 -0 151484.91 0
13423.331 -6739.3662 502.10693 4291745247 -0 -0 -295294.47 0
13031.131 -5202.6372 61.800293 4283059542 -0 0 277804.75 0
13136.387 -5461.7764 491.78711 4291745247 0 0 -598968.25 0
13198.199 -4333.9062 463.25537 4291745247 0 0 277714.53 0
13351.375 -4569.4756 491.78711 4291745247 -0 -0 -295294.47 0
13304.469 -5877.7344 61.800293 4284110696 -0 0 517197.06 0
13024.687 -6689.2197 61.800293 4286149993 -0 0 47966.117 0
13318.574 -6851.7422 61.800293 4284110696 -0 0 517197.06 0
13094.685 -6365.1445 491.78711 4291745247 0 0 -598968.25 0
13073.847 -7139.854 463.2554 4291745247 -0 0 297395.44 0
13092.104 -4216.6211 447.05759 4291284696 0 -64232.812 -0 0
13271.58 -6297.4453 491.78711 4291745247 0 0 -598968.25 0
13185.772 -4146.561 463.25537 4291745247 0 0 277714.53 0
13018.881 -6550.168 460.51114 4292538093 2225.4062 0 -2925.7153 0
13145.533 -4554.0762 491.78711 4291745247 0 0 -295294.47 0
13069.291 -4087.4268 491.78711 4291745247 0 0 -295294.47 0
13019.617 -5280.8989 461.07117 4292538093 4905.9146 0 -6449.7476 0
13284.307 -4535.4102 61.800293 4282464054 -0 0 482970.09 0
13225.326 -6985.8057 463.25537 4291745247 0 -0 151484.91 0
13365.797 -5699.3486 61.800293 4282730310 -0 0 543616 0
13157.29 -7220.8594 363.28622 4292753155 13035.893 0 0 0
13380.477 -4522.5845 491.78711 4291745247 -0 -0 -295294.47 0
13157.29 -7188.2729 165.86957 4293035266 92222.148 -0 0 0
13066.658 -4760.9595 61.800293 4282331708 -0 0 277804.75 0
13135.345 -4243.293 491.78711 4291745247 0 0 -295294.47 0
13036.705 -4394.4736 472.36743 4292538093 2395.8945 0 -4314.7578 0
13123.389 -7049.8486 463.25534 4291745247 -0 0 297395.44 0
13306.708 -6389.6885 61.800293 4292597681 -0 0 517197.06 0
13122.654 -6726.7012 463.25537 4291745247 -0 0 297395.44 0
13116.936 -6995.1807 206.91397 4292538093 0 64232.812 -0 0
13417.32 -6872.1582 147.70613 4292538093 -508.01596 0 0 0
13253.402 -4216.6211 247.86301 4291745247 -0 -69781.047 -0 0
13309.356 -5516.6387 491.78711 4291745247 -0 -0 -598968.25 0
13351.825 -6930.7573 61.800293 4284639586 0 0 423699.47 0
13356.775 -4770.0488 491.78711 4291745247 0 0 -295294.47 0
13385.344 -5857.373 491.78711 4291745247 -0 -0 -598968.25 0
13226.756 -4349.2358 463.25537 4291745247 0 0 277714.53 0
13307.293 -4730.5845 61.800293 4284110696 -0 0 517197.06 0
13152.087 -5199.748 61.800293 4282927952 -0 0 507643.38 0
13365.542 -5374.5249 61.800293 4287858330 -0 0 543616 0
13476.693 -4000.957 468.87933 4284110696 -1889.656 -4090.481 -3716.7695 0
13045.506 -6675.8867 463.25537 4291745247 0 0 26981.078 0
13415.428 -4505.6372 61.800297 4284110696 -0 0 543616 0
13200.41 -6603.627 61.800289 4287268750 -0 0 517197.06 0
13065.724 -6615.3945 502.10696 4291745247 0 0 -295294.47 0
13338.245 -6972.5957 502.1069 4291745247 -0 -0 -295294.47 0
13403.041 -5651.9297 61.800293 4284110696 -0 0 543616 0
13120.486 -6971.606 61.800293 4286018944 -0 0 27980.605 0
13038.793 -5132.0293 61.800301 4285098874 -0 0 277804.75 0
13114.105 -4462.3521 491.78708 4291745247 0 0 -295294.47 0
13066.919 -6146.8364 61.800293 4284110696 -0 0 507643.38 0
13180.104 -5695.377 491.78711 4291745247 0 0 -598968.25 0
13422.265 -5663.6147 491.78711 4291745247 -0 -0 -598968.25 0
13127.703 -6547.6841 61.800297 4285360739 -0 0 507643.38 0
13399.407 -4644.3335 491.78708 4291745247 -0 -0 -295294.47 0
13401.709 -5330.7681 491.78711 4291745247 -0 -0 -598968.25 0
13418.983 -5810.52 491.78711 4291745247 -0 -0 -598968.25 0
13270.234 -4216.6211 208.14203 4291745247 -0 -69781.047 -0 0
13343.66 -4317.5898 463.25537 4291745247 0 0 145543.02 0
13354.046 -6442.8896 463.25537 4291745247 -0 0 297395.44 0
13181.693 -6239.6475 491.78711 4291745247 0 0 -598968.25 0
13236.366 -5450.9443 491.78711 4291745247 -0 -0 -598968.25 0
13331.11 -7223.1631 231.10129 4292538093 -8634.1719 0 0 0
13290.464 -6659.8354 463.25537 4291745247 -0 0 297395.44 0
13359.426 -5762.208 491.78711 4291745247 -0 -0 -598968.25 0
13211.709 -4753.6958 463.25537 4291745247 0 0 277714.53 0
13403.189 -4535.7671 491.78711 4291745247 -0 -0 -295294.47 0
13033.281 -3990.4778 459.92715 4284110696 1266.9567 -3525.9673 -0.32568359 0
13043.299 -4328.7588 61.800293 4284769883 -0 0 277804.75 0
13159.105 -7224.9004 163.57365 4292538093 0 9058.8145 0 0
13151.333 -4216.6216 421.4519 4291745247 0 -64232.812 -0 0
13173.362 -6552.6489 502.10693 4291745247 -0 -0 -295294.47 0
13025.379 -5903.834 61.800293 4286282621 -0 0 507643.38 0
13220.445 -5267.6157 491.78711 4291745247 -0 -0 -598968.25 0
13117.138 -5324.3652 491.78714 4291745247 0 0 -598968.25 0
13402.103 -7192.0913 164.54286 4290578179 0 72590.023 -0 0
13258.618 -6560.0405 61.800293 4283123528 -0 0 517197.06 0
13388.168 -4340.3896 61.800293 4284110696 -0 0 543616 0
13267.034 -4745.7842 491.78711 4291745247 0 0 -295294.47 0
13290.271 -5619.1328 491.78714 4291745247 -0 -0 -598968.25 0
13090.859 -4791.5537 61.800293 4287731605 -0 0 507643.38 0
13104.319 -5076.4761 491.78711 4291745247 0 0 -598968.25 0
13094.663 -6635.8853 502.10696 4291745247 0 0 -295294.47 0
13417.421 -3976.9341 469.52115 4284110696 -1252.283 -3485.4761 0.77929688 0
13136.374 -7213.2842 463.25537 4291745247 0 -0 72362.656 0
13403.574 -5941.4888 491.78711 4291745247 -0 -0 -598968.25 0
13346.01 -6040.002 491.78711 4291745247 0 0 -598968.25 0
13374.32 -4958.7881 61.800293 4284110696 -0 0 543616 0
13404.04 -4139.1016 463.25537 4291745247 0 0 71039.719 0
13386.946 -5468.042 163.06825 4293714884 -2.6517041 -3.645679 -0.91840744 0
13157.225 -6360.2314 491.78714 4291745247 0 0 -598968.25 0
13054.947 -4023.5735 480.7782 4292538093 1789.8164 0 -4656.833 0
13251.766 -4330.1938 61.800293 4284110696 -0 0 482970.09 0
13094.751 -6799.083 322.72549 4293714884 -469.23795 194.19127 0 0
13228.82 -7130.8525 463.25537 4291745247 0 -0 151484.91 0
13064.031 -6859.793 61.800289 4287662732 -0 0 47966.117 0
13180.027 -4562.5576 491.78711 4291745247 0 0 -295294.47 0
13394.882 -5193.0981 491.78711 4291745247 -0 -0 -598968.25 0
13029.574 -7080.3633 463.25537 4291745247 0 0 31643.303 0
13033.439 -4526.4712 61.800293 4283718751 -0 0 277804.75 0
13223.705 -6752.7778 463.25537 4291745247 -0 0 297395.44 0
13056.74 -5156.2344 486.86475 4292538093 24370.35 0 0 0
13198.098 -4344.5635 463.2554 4291745247 0 0 277714.53 0
13056.74 -5229.8164 491.62482 4292538093 24370.35 0 0 0
13207.829 -5125.3145 61.800293 4284110696 -0 0 482970.09 0
13154.773 -6767.6318 463.25534 4291745247 -0 0 297395.44 0
13219.748 -5558.6919 61.800293 4284110696 -0 0 482970.09 0
13198.743 -5507.3369 61.800293 4282796881 -0 0 482970.09 0
13079.943 -5233.0576 61.800293 4283582810 -0 0 507643.38 0
13268.428 -6572.0811 61.800293 4284110696 -0 0 517197.06 0
13099.082 -6995.1807 324.80392 4292538093 0 64232.812 -0 0
13362.274 -4216.6211 202.82097 4291745247 0 -64232.812 0 0
13053.432 -6478.9282 154.68025 4292538093 -0 0 5013.813 0
13157.29 -7111.9268 237.71193 4292538093 92222.148 -0 0 0
13157.29 -7030.5337 449.01367 4290708995 92222.148 -0 0 0
13058.508 -4216.6211 291.19708 4291876833 -0 -8550.7021 -0 0
13378.74 -6684.8535 61.800293 4282993221 0 0 423699.47 0
13090.354 -7222.6094 495.92242 4284110696 3957.3408 8567.6055 -7783.6782 0
13062.484 -4456.4194 491.78711 4291745247 0 0 -295294.47 0
13384.477 -4979.9507 61.800293 4284110696 -0 0 543616 0
13298.398 -5964.9258 491.78711 4291745247 0 0 -598968.25 0
13065.363 -4098.0435 463.25537 4291745247 0 -0 35765.953 0
13071.921 -6870.6626 502.10693 4291745247 0 0 -295294.47 0
13103.266 -4216.6211 340.24423 4291416282 0 -64232.812 -0 0
13431.66 -7074.6489 486.64096 4292538093 -98216.383 -0 0 0
13093.201 -4404.2827 483.24893 4292538093 -309.25476 402.89505 0 0
13080.562 -6418.1792 61.800293 4282464584 -0 0 507643.38 0
13026.066 -6168.2153 61.800293 4284110696 -0 0 145896.98 0
13335.585 -6961.7563 61.800293 4284110696 -0 0 543616 0
13293.508 -6432.4512 61.800293 4284110696 -0 0 517197.06 0
13235.467 -5935.6567 61.800293 4284110696 -0 0 517197.06 0
13112.065 -6660.8638 463.25534 4291745247 -0 0 297395.44 0
13398.766 -4439.2891 463.25537 4291745247 0 0 71039.719 0
13300.437 -6791.4961 61.800293 4283453017 -0 0 517197.06 0
13366.278 -6440.1265 61.800293 4283121734 -0 0 543616 0
13157.29 -7014.8511 303.59625 4292538093 79050.586 0 0 0
13209.385 -7224.9004 304.64005 4292538093 0 16873.352 0 0
13108.754 -4388.7559 491.78711 4291745247 0 0 -295294.47 0
13333.211 -4216.6211 376.75427 4291745247 0 -64232.812 0 0
13030.356 -4584.4263 463.25537 4291745247 -0 0 40893.176 0
13396.6 -5675.918 491.78711 4291745247 -0 -0 -598968.25 0
13024.854 -6967.9067 464.95361 4292538093 2620.7185 0 -3813.9697 0
13260.555 -6683.5508 463.25537 4291745247 -0 0 297395.44 0
13226.242 -5095.4658 61.800289 4283585132 -0 0 482970.09 0
13219.814 -5961.1562 491.78711 4291745247 0 0 -598968.25 0
13094.385 -6800.7803 330.62262 4293714884 -503.44601 66.342926 0 0
13400.799 -6611.9878 502.10693 4291745247 -0 -0 -295294.47 0
13070.16 -4721.1431 61.800293 4284110696 -0 0 277804.75 0
13385.412 -6799.5234 226.31314 4293714884 -66.342926 503.44601 0 0
13261.191 -4049.4211 463.25537 4291745247 0 0 145543.02 0
13172.907 -5997.0063 61.800293 4284110696 -0 0 482970.09 0
13087.139 -6609.771 502.10693 4291745247 0 0 -295294.47 0
13093.432 -4570.4385 61.800293 4284110696 -0 0 277804.75 0
13160.788 -4213.0918 463.25537 4291745247 0 0 277714.53 0
13254.738 -4445.7153 463.25537 4291745247 0 0 277714.53 0
13362.861 -5395.0396 491.78714 4291745247 -0 -0 -598968.25 0
13042.532 -4415.7412 61.800293 4288191155 -0 0 277804.75 0
13386.443 -7011.915 463.25537 4291745247 0 -0 79344.266 0
13203.777 -4806.1797 463.25537 4291745247 0 0 277714.53 0
13303.516 -6413.3452 61.800293 4284110696 -0 0 517197.06 0
13178.116 -5569.3301 491.78711 4291745247 0 0 -598968.25 0
13333.06 -6642.3975 61.800293 4284110696 -0 0 543616 0
13350.642 -4733.1948 61.800293 4284110696 -0 0 543616 0
13287.994 -6909.0659 61.800293 4284110696 -0 0 517197.06 0
13137.85 -6079.6533 61.800293 4284110696 -0 0 507643.38 0
13377.252 -7192.0908 317.51761 4291890947 0 73345.531 0 0
13366.224 -5529.2236 61.800293 4284110696 -0 0 543616 0
13028.435 -4216.6211 373.56183 4290955731 0 -64232.812 -0 0
13390.425 -4688.6089 294.24991 4293714884 194.36403 -468.89243 0 0
13310.662 -6323.1948 491.78711 4291745247 0 0 -598968.25 0
13072.001 -6090.4883 491.78714 4291745247 0 0 -598968.25 0
13063.872 -7120.4966 502.10693 4291745247 0 0 -295294.47 0
13106.995 -4905.4482 491.78711 4291745247 -0 -0 -598968.25 0
13295.449 -4562.0542 491.78711 4291745247 0 0 -295294.47 0
13224.988 -6871.6309 502.10693 4291745247 0 0 -295294.47 0
13232.911 -4769.4443 61.800293 4284110696 -0 0 482970.09 0
13373.567 -4445.584 491.78711 4291745247 -0 -0 -295294.47 0
13137.502 -5973.0337 61.800293 4284110696 -0 0 507643.38 0
13146.018 -4451.8809 491.78711 4291745247 0 0 -295294.47 0
13064.273 -6024.2505 154.68025 4292538093 -0 0 5013.813 0
13070.92 -4449.9282 463.25537 4291745247 -0 0 70405.086 0
13254.764 -4874.126 491.78708 4291745247 -0 -0 -598968.25 0
13111.59 -4542.7451 463.25537 4291745247 0 0 277714.53 0
13343.521 -4273.4585 491.78711 4291745247 -0 -0 -295294.47 0
13339.328 -6705.124 61.800293 4284110696 -0 0 543616 0
13056.513 -5693.2515 61.800293 4286412413 -0 0 507643.38 0
13395.143 -6458.2256 463.25537 4291745247 -0 0 297395.44 0
13185.691 -4247.4561 491.78711 4291745247 -0 -0 -295294.47 0
13288.719 -6198.8428 61.800293 4284634437 -0 0 517197.06 0
13423.246 -6915.9023 502.10693 4291745247 -0 -0 -295294.47 0
13306.538 -6016.8735 491.78711 4291745247 0 0 -598968.25 0
13395.431 -6510.3145 463.25537 4291745247 0 -0 151484.91 0
13157.289 -7097.375 117.78476 4292157702 79050.586 0 0 0
13128.807 -4090.832 491.78711 4291745247 -0 -0 -295294.47 0
13167.812 -4254.8999 463.25537 4291745247 0 0 277714.53 0
13125.662 -6995.1807 382.17694 4292538093 0 64232.812 -0 0
13147.254 -6182.5669 61.800293 4284110696 -0 0 507643.38 0
13154.441 -4629.2729 61.800293 4284110696 -0 0 507643.38 0
13132.482 -4717.3267 463.25537 4291745247 0 0 277714.53 0
13031.864 -4216.6211 387.08276 4291745247 0 -64232.812 -0 0
13344.575 -5642.2476 61.800293 4284110696 -0 0 543616 0
13189.258 -5718.6924 61.800289 4284110696 -0 0 482970.09 0
13283.853 -5012.3691 491.78711 4291745247 -0 -0 -598968.25 0
13342.223 -4662.6973 61.800293 4291547573 -0 0 543616 0
13100.444 -6316.0215 61.800293 4281677370 -0 0 507643.38 0
13054.309 -4868.3975 61.800293 4284110696 -0 0 277804.75 0
13048.665 -4891.8345 478.24658 4292538093 4162.6411 0 -9492.7461 0
13348.98 -5168.4912 61.800293 4283978047 -0 0 543616 0
13112.433 -4479.7305 491.78711 4291745247 0 0 -295294.47 0
13314.4 -5478.0195 61.800293 4284112992 -0 0 517197.06 0
13034.557 -4484.4243 463.25537 4291745247 -0 0 40893.176 0
13157.29 -7085.3203 442.17584 4292138946 92222.148 -0 0 0
13257.019 -6906.8306 463.25537 4291745247 0 -0 151484.91 0
13092.449 -5814.6494 61.800293 4287007874 -0 0 507643.38 0
13129.031 -7028.7378 502.10693 4291745247 0 0 -295294.47 0
13213.061 -7029.7119 463.25537 4291745247 0 -0 151484.91 0
13355.882 -6404.9307 468.1517 4291745247 -0 -7065.6738 -0 0
13020.391 -4216.6206 438.40985 4291745247 0 -64232.812 -0 0
13294.123 -6321.0811 61.800293 4284765771 -0 0 517197.06 0
13300.561 -5553.5815 491.78711 4291745247 -0 -0 -598968.25 0
13054.895 -5184.9268 154.67537 4292538093 -0 0 5013.813 0
13191.27 -6185.2681 491.78711 4291745247 0 0 -598968.25 0
13369.681 -4802.6421 463.25537 4291745247 0 0 277714.53 0
13287.714 -6284.2158 491.78711 4291745247 0 0 -598968.25 0
13097.248 -6172.9131 491.78711 4291745247 0 0 -598968.25 0
13187.335 -4266.3369 491.78711 4291745247 -0 -0 -295294.47 0
13204.182 -6908.9624 61.800297 4284110696 -0 0 517197.06 0
13063.583 -6176.835 61.800293 4285231459 -0 0 507643.38 0
13328.449 -6653.2104 502.10693 4291745247 -0 -0 -295294.47 0
13266.711 -4713.4087 491.78708 4291745247 0 0 -295294.47 0
13080.785 -5295.6201 491.78711 4291745247 0 0 -598968.25 0
13155.127 -4174.4551 491.78711 4291745247 -0 -0 -295294.47 0
13029.397 -6035.1494 468.02197 4292538093 5392.4995 0 -8712.3672 0
13316.007 -6921.8496 502.10693 4291745247 -0 -0 -295294.47 0
13143.352 -4446.0396 61.800293 4282270784 -0 0 507643.38 0
13291.312 -5636.21 491.78711 4291745247 -0 -0 -598968.25 0
13047.582 -6203.4058 61.800293 4284110696 -0 0 507643.38 0
13124.948 -6337.4067 61.800293 4292663467 -0 0 507643.38 0
13407.107 -4112.4951 463.25537 4291745247 0 0 71039.719 0
13431.66 -4866.2578 482.36517 4292538093 -50801.578 0 0 0
13301.487 -4636.9399 463.25537 4291745247 0 0 277714.53 0
13071.088 -4887.8843 151.14035 4292538093 508.01596 -0 0 0
13260.14 -4597.0933 463.25537 4291745247 0 0 277714.53 0
13233.447 -6915.4346 463.25534 4291745247 0 -0 72362.656 0
13042.971 -5467.4395 233.38763 4293714884 -19.484203 38.684509 -23.637995 0
13157.289 -7193.082 286.1174 4292073414 92222.148 -0 0 0
13255.057 -5085.7764 491.78711 4291745247 -0 -0 -598968.25 0
13241.627 -6668.7026 463.25534 4291745247 -0 0 297395.44 0
13409.225 -4468.8179 463.25537 4291745247 0 0 71039.719 0
13311.469 -5446.0703 61.800293 4282137160 -0 0 517197.06 0
13198.292 -7224.9004 434.41635 4292538093 -0 138.94305 0 0
13062.566 -6164.251 154.68013 4292538093 -0 0 5013.813 0
13094.213 -4216.6206 99.860588 4291745247 0 -68819.453 0 0
13028.064 -6615.71 467.16006 4292538093 2620.7185 0 -3813.9697 0
13354.701 -4777.2275 61.800293 4284110696 -0 0 543616 0
13182.385 -4476.1885 463.25537 4291745247 0 0 277714.53 0
13157.29 -7037.21 150.48564 4293260001 79050.586 0 0 0
13296.895 -6027.5996 491.78711 4291745247 0 0 -598968.25 0
13323.683 -4234.8008 463.25537 4291745247 0 0 145543.02 0
13275.465 -6948.8872 61.800297 4285224505 -0 0 517197.06 0
13272.992 -7138.8579 463.25537 4291745247 0 -0 151484.91 0
13113.235 -4228.6196 61.800293 4284110696 -0 0 277804.75 0
13078.908 -5437.8081 491.78708 4291745247 0 0 -598968.25 0
13370.822 -7010.2358 61.800289 4284110696 0 0 423699.47 0
13130.338 -5986.0566 61.800293 4284110696 -0 0 507643.38 0
13425.545 -5280.7432 491.78714 4291745247 -0 -0 -598968.25 0
13016.296 -4255.2441 152.10017 4292538093 0 0 5541.6543 0
13116 -5272.5229 61.800293 4284110696 -0 0 507643.38 0
13391.631 -4946.3281 491.78711 4291745247 -0 -0 -598968.25 0
13257.566 -6763.6855 502.10693 4291745247 -0 -0 -295294.47 0
13261.066 -5549.7461 61.800293 4286019447 -0 0 517197.06 0
13427.848 -6394.459 61.800293 4282335041 0 0 423699.47 0
13110.35 -6054.917 491.78711 4291745247 0 0 -598968.25 0
13187.083 -5319.1323 61.800293 4285890432 -0 0 482970.09 0
13031.483 -5288.2515 154.67537 4292538093 -0 0 5013.813 0
13221.299 -7224.9004 305.5108 4292538093 0 16873.352 0 0
13170.128 -4489.4297 463.25537 4291745247 0 0 277714.53 0
13277.65 -7224.9004 121.52887 4292538093 0 35687.758 0 0
13402.713 -6722.0015 502.10693 4291745247 -0 -0 -295294.47 0
13309.665 -6470.4429 502.10693 4291745247 -0 -0 -295294.47 0
13406.517 -6055.6177 61.800293 4284110696 0 0 423699.47 0
13038.61 -6174.8394 154.68013 4292538093 -0 0 5013.813 0
13352.411 -4560.9458 463.2554 4291745247 0 0 145543.02 0
13390.182 -5750.915 246.37796 4293714884 194.36403 -468.89243 0 0
13396.521 -5929.6455 491.78711 4291745247 -0 -0 -598968.25 0
13428.171 -6977.3496 154.68025 4292538093 0 0 5013.813 0
13215.023 -5079.0532 61.800293 4284110696 -0 0 482970.09 0
13384.925 -4423.4429 61.800293 4284505705 -0 0 543616 0
13235.884 -6315.3164 61.800293 4284110696 -0 0 517197.06 0
13200.062 -4179.8877 491.78711 4291745247 -0 -0 -295294.47 0
13037.698 -6446.1792 61.800293 4284110696 -0 0 145896.98 0
13247.528 -5116.2847 491.78711 4291745247 -0 -0 -598968.25 0
13339.999 -6668.937 61.800293 4282990400 -0 0 543616 0
13371.863 -5135.8574 61.800293 4287401100 -0 0 543616 0
13181.994 -4288.5894 491.78711 4291745247 0 0 -295294.47 0
13206.854 -4866.4717 491.78711 4291745247 -0 -0 -598968.25 0
13396.333 -4561.2329 463.25537 4291745247 0 0 71039.719 0
13190.502 -5134.5107 61.800293 4284110696 -0 0 482970.09 0
13103.658 -6528.9038 489.90619 4293714884 309.25476 -402.89505 0 0
13193.211 -6498.6577 463.25537 4291745247 -0 0 297395.44 0
13039.747 -6956.313 474.03561 4292538093 2079.4158 0 -4198.4922 0
13404.309 -4476.6909 463.25537 4291745247 0 0 71039.719 0
13065.273 -6692.5732 61.800293 4284110696 -0 0 145896.98 0
13233.205 -5534.2983 61.800293 4282596168 -0 0 482970.09 0
13042.595 -5139.6455 61.800293 4281872447 -0 0 277804.75 0
13197.092 -6055.8721 61.800293 4290164906 -0 0 482970.09 0
13101.838 -5465.9346 281.12604 4293714884 66.170151 503.44601 0 0
13156.25 -4343.6602 463.25537 4291745247 0 0 277714.53 0
13189.93 -6472.0996 61.800293 4284110696 -0 0 482970.09 0
13237.58 -6699.4004 463.25537 4291745247 -0 0 297395.44 0
13134.558 -6166.7715 491.78711 4291745247 0 0 -598968.25 0
13397.382 -4807.3408 483.43176 4291745247 0 -10030.322 0 0
13090.5 -6111.3096 61.800289 4281939778 -0 0 507643.38 0
13045.028 -4216.6211 210.64879 4291745247 0 -68819.453 0 0
13306.392 -5608.6016 491.78711 4291745247 -0 -0 -598968.25 0
13229.757 -5395.7173 61.800293 4284110696 -0 0 482970.09 0
13058.21 -5016.3311 154.67535 4292538093 -0 0 5013.813 0
13068.177 -6478.6851 463.25537 4291745247 -0 0 297395.44 0
13190.488 -6466.6787 61.800293 4284110696 -0 0 517197.06 0
13136.004 -4282.584 61.800293 4285035902 -0 0 277804.75 0
13201.529 -6567.6641 61.800293 4282202699 -0 0 517197.06 0
13384.46 -4413.7212 334.82947 4293714884 -194.36403 -469.23795 0 0
13330.91 -4078.3833 463.25537 4291745247 0 0 145543.02 0
13184.162 -4469.5312 491.78711 4291745247 0 0 -295294.47 0
13372.964 -6160.6108 491.78711 4291745247 0 0 -598968.25 0
13178.519 -6145.3423 61.800293 4284110696 -0 0 482970.09 0
13387.612 -5945.6841 61.800293 4282138436 -0 0 543616 0
13389.047 -6174.1445 61.800293 4281020218 -0 0 543616 0
13085.382 -5402.2461 491.78711 4291745247 0 0 -598968.25 0
13128.053 -4072.4473 491.78714 4291745247 -0 -0 -295294.47 0
13340.45 -4672.3848 491.78711 4291745247 0 0 -295294.47 0
13193.5 -3955.7373 481.58307 4284110696 -0 -12556.735 -11409.504 0
13256.08 -4703.8926 61.800293 4284040506 -0 0 482970.09 0
13094.506 -5742.0508 308.89844 4293714884 -503.44601 66.342926 0 0
13094.057 -5424.7314 491.78711 4291745247 0 0 -598968.25 0
13182.206 -6019.2041 491.78711 4291745247 0 0 -598968.25 0
13379.054 -5574.4551 61.800293 4284110696 -0 0 543616 0
13052.518 -4216.6211 79.401855 4291745247 0 -68819.453 0 0
13022.256 -4894.1099 463.07825 4292538093 4905.9146 0 -6449.7476 0
13323.216 -5543.5596 61.800293 4284110696 -0 0 517197.06 0
13195.582 -4335.3008 463.25537 4291745247 0 0 277714.53 0
13207.716 -5879.1904 491.78711 4291745247 0 0 -598968.25 0
13426.056 -4282.4214 154.68025 4292538093 0 0 5013.813 0
13075.688 -4222.7715 463.25537 4291745247 -0 0 70405.086 0
13388.197 -6877.9463 502.10693 4291745247 -0 -0 -295294.47 0
13423.74 -4627.2207 61.800289 4284110696 -0 0 543616 0
13071.066 -6195.6455 152.36673 4292538093 33.153553 -0 2.4036288 0
13306.731 -7080.2319 463.25537 4291745247 0 -0 151484.91 0
13146.286 -4231.9072 491.78711 4291745247 0 0 -295294.47 0
13258.889 -6273.269 491.78711 4291745247 0 0 -598968.25 0
13343.736 -6825.4663 502.10693 4291745247 -0 -0 -295294.47 0
13157.29 -7215.5957 202.1604 4291284152 13035.893 0 0 0
13059.257 -6296.7842 491.78711 4291745247 0 0 -598968.25 0
13319.445 -6221.3213 61.800293 4284110696 -0 0 517197.06 0
13366.182 -6028.6792 491.78711 4291745247 -0 -0 -598968.25 0
13331.11 -7196.1274 371.19995 4292538093 -12986.915 -0 -0 0
13418.96 -7002.502 502.10693 4291745247 -0 -0 -295294.47 0
13191.484 -4406.1978 463.25534 4291745247 0 0 277714.53 0
13417.329 -6530.1504 152.31587 4292538093 -33.153553 0 2.4036288 0
13341.105 -4192.7402 463.25537 4291745247 0 0 145543.02 0
13335.298 -7160.9097 463.25537 4291745247 0 -0 79344.266 0
13054.513 -4216.6211 294.32837 4291416282 -0 -8550.7021 -0 0
13428.912 -6936.8154 154.68025 4292538093 0 0 5013.813 0
13258.445 -4453.6064 61.800293 4284110696 -0 0 482970.09 0
13412.143 -4532.8052 61.800293 4288191109 -0 0 543616 0
13414.905 -5084.3677 491.78711 4291745247 -0 -0 -598968.25 0
13391.502 -5749.8174 235.4245 4293714884 402.72226 -309.25476 0 0
13330.475 -6445.1636 463.25537 4291745247 -0 0 297395.44 0
13347.119 -4380.6636 61.800297 4282267455 -0 0 543616 0
13139.024 -6846.6802 463.25537 4291745247 -0 0 297395.44 0
13027.062 -6118.0654 466.47076 4292538093 5777.3813 0 -8407.9072 0
13289.228 -4216.6211 419.58948 4291745247 -0 -69781.047 -0 0
13386.606 -5459.4316 367.87173 4293714884 -309.25476 402.89505 0 0
13049.062 -5575.7705 61.800297 4283324755 -0 0 507643.38 0
13386.689 -5501.4624 61.800293 4284110696 -0 0 543616 0
13023.073 -5682.8789 61.800293 4284110696 -0 0 507643.38 0
13069.81 -7116.9448 463.25537 4291745247 -0 0 297395.44 0
13431.66 -6810.0996 501.85419 4292538093 -98216.383 -0 0 0
13227.642 -5539.6489 61.800293 4286083433 -0 0 482970.09 0
13224.273 -5264.3296 491.78711 4291745247 -0 -0 -598968.25 0
13187.36 -6969.4473 502.10693 4291745247 0 0 -295294.47 0
13427.774 -4688.6572 227.20047 4293714884 -4.1911263 -48.38092 5.0846424 0
13417.313 -5289.0107 147.63574 4292538093 -508.01596 0 0 0
13146.311 -4509.5791 61.800293 4284110696 -0 0 507643.38 0
13358.169 -7192.0908 73.383354 4292538093 0 72590.023 -0 0
13363.831 -5875.8008 491.78708 4291745247 -0 -0 -598968.25 0
13173.789 -5794.8589 491.78714 4291745247 0 0 -598968.25 0
13061.928 -6995.1807 78.331482 4292538093 0 68819.453 0 0
13225.874 -4216.6211 196.62857 4291811040 0 -69781.047 0 0
13074.285 -5031.5435 61.800293 4287728274 -0 0 507643.38 0
13349.136 -5215.2944 61.800293 4284110696 -0 0 543616 0
13028.711 -6743.8086 463.2554 4291745247 0 0 31643.303 0
13339.513 -5698.897 61.800293 4285227110 -0 0 543616 0
13084.987 -7169.6558 463.25537 4291745247 0 -0 72362.656 0
13423.675 -6856.0947 61.800293 4284110696 0 0 423699.47 0
13316.101 -4362.3584 491.78714 4291745247 -0 -0 -295294.47 0
13101.254 -7158.0342 463.2554 4291745247 0 -0 72362.656 0
13209.968 -4081.7852 463.25537 4291745247 0 0 145543.02 0
13292.138 -7137.8887 463.25537 4291745247 0 -0 151484.91 0
13159.01 -4176.522 491.78711 4291745247 -0 -0 -295294.47 0
13342.977 -6178.0225 491.78711 4291745247 0 0 -598968.25 0
13228.795 -7182.3672 61.800293 4284110696 0 0 34226.984 0
13398.392 -6748.8457 502.10693 4291745247 -0 -0 -295294.47 0
13306.641 -7224.9004 441.5246 4292538093 -0 42.885147 0 0
13157.29 -7022.9497 350.14807 4291417032 79050.586 0 0 0
13043.216 -4479.3691 475.75391 4292538093 2199.0574 0 -4440.0571 0
13177.402 -5403.7417 61.800293 4284110696 -0 0 482970.09 0
13239.67 -4216.6211 450.47784 4291745247 -0 -69781.047 -0 0
13174.439 -4129.3481 463.25537 4291745247 0 0 277714.53 0
13227.178 -6404.9307 488.70105 4291745247 -0 -5918.5576 -0 0
13264.999 -5023.8184 491.78711 4291745247 -0 -0 -598968.25 0
13116.961 -5700.8716 61.800293 4282464329 -0 0 507643.38 0
13173.189 -4481.1689 463.25537 4291745247 0 0 277714.53 0
13164.861 -5208.1748 491.78711 4291745247 -0 -0 -598968.25 0
13305.66 -4406.208 61.800293 4284110696 -0 0 482970.09 0
13066.407 -5124.2505 491.78711 4291745247 0 0 -598968.25 0
13388.283 -5740.7603 403.54913 4293714884 66.342926 503.44601 0 0
13365.217 -6751.6729 502.10696 4291745247 -0 -0 -295294.47 0
13133.376 -4470.9253 61.800293 4284110696 -0 0 507643.38 0
13236.668 -4280.3442 61.800293 4289769907 -0 0 482970.09 0
13050.264 -6166.9668 154.68013 4292538093 -0 0 5013.813 0
13235.086 -5838.3682 491.78711 4291745247 0 0 -598968.25 0
13309.627 -7224.9004 277.0556 4292538093 0 55.233646 0 0
13065.564 -5263.0435 154.67535 4292538093 -0 0 5013.813 0
13077.559 -4320.8682 61.800293 4284634722 -0 0 277804.75 0
13082.152 -4422.4092 463.25537 4291745247 -0 0 70405.086 0
13020.053 -4433.52 61.800293 4284110696 -0 0 277804.75 0
13232.345 -4769.4873 491.78711 4291745247 0 0 -295294.47 0
13156.343 -6995.1807 273.66861 4293261816 0 64232.812 -0 0
13339.27 -6946.1758 61.800293 4284110696 -0 0 543616 0
13263.338 -5142.6943 61.800293 4285956485 -0 0 482970.09 0
13187.333 -5047.9072 61.800293 4284110696 -0 0 482970.09 0
13391.347 -4714.9482 463.25537 4291745247 0 0 145543.02 0
13381.664 -6389.3716 491.78711 4291745247 0 0 -598968.25 0
13409.332 -5785.3306 491.78714 4291745247 -0 -0 -598968.25 0
13161.418 -4465.2026 61.800293 4284110696 -0 0 482970.09 0
13074.884 -5689.9028 61.800293 4285555564 -0 0 507643.38 0
13318.219 -5641.4634 491.78711 4291745247 -0 -0 -598968.25 0
13237.512 -6023.4365 61.800293 4284049509 -0 0 517197.06 0
13032.873 -4657.061 61.800289 4284110696 -0 0 277804.75 0
13100.675 -4539.5225 491.78711 4291745247 0 0 -295294.47 0
13135.977 -4163.9619 463.25537 4291745247 -0 0 70405.086 0
13251.79 -4780.9561 61.800293 4281280306 -0 0 482970.09 0
13315.938 -4330.3496 491.78711 4291745247 -0 -0 -295294.47 0
13175.291 -4446.8823 463.25537 4291745247 0 0 277714.53 0
13384.838 -6716.0093 463.25537 4291745247 0 -0 151484.91 0
13060.764 -6529.1221 227.53983 4293714884 19.518414 -38.760437 23.679871 0
13411.96 -4692.9658 463.25537 4291745247 0 0 71039.719 0
13139.988 -5750.6602 61.800293 4285492854 -0 0 507643.38 0
13403.375 -7192.0908 392.15991 4289483010 0 73345.531 0 0
13056.146 -5306.9888 61.800293 4287008914 -0 0 507643.38 0
13361.916 -4642.5 61.800293 4284110696 -0 0 543616 0
13101.517 -5465.8921 402.60562 4293714884 66.170151 503.44601 0 0
13389.91 -4496.5391 61.800293 4284110696 -0 0 543616 0
13050.552 -6563.8569 61.800293 4284110696 -0 0 145896.98 0
13133.636 -4069.0029 463.25537 4291745247 -0 0 70405.086 0
13202.081 -6018.9277 61.800297 4282859841 -0 0 482970.09 0
13323.109 -4715.0781 491.78711 4291745247 0 0 -295294.47 0
13115.437 -6497.2026 61.800293 4284110696 -0 0 507643.38 0
13246.962 -4231.4102 463.2554 4291745247 0 0 145543.02 0
13335.338 -6503.2446 463.25537 4291745247 -0 0 297395.44 0
13187.576 -6686.9443 502.10693 4291745247 0 0 -295294.47 0
13148.857 -6421.2666 463.25537 4291745247 -0 0 297395.44 0
13171.309 -5078.8418 491.78711 4291745247 -0 -0 -598968.25 0
13030.839 -5099.1172 154.67538 4292538093 -0 0 5013.813 0
13032.839 -5083.5171 470.15189 4292538093 5392.4995 0 -8712.3672 0
13216.373 -4140.75 463.25534 4291745247 0 0 145543.02 0
13339.626 -7192.0908 276.20047 4293327868 0 73345.531 0 0
13342.742 -5469.5063 61.800293 4283583314 -0 0 543616 0
13056.74 -6064.5312 484.71719 4292538093 50801.578 0 0 0
13384.457 -4413.7207 370.9964 4293714884 -194.36403 -469.23795 0 0
13238.984 -4033.8003 463.25537 4291745247 0 0 145543.02 0
13165.371 -6979.4438 463.25537 4291745247 0 -0 72362.656 0
13105.078 -4783.0425 491.78714 4291745247 0 0 -295294.47 0
13081.417 -4370.9268 61.800289 4285757563 -0 0 277804.75 0
13386.486 -6519.0518 192.2411 4293714884 -194.19127 469.23795 0 0
13398.138 -4101.1768 463.25537 4291745247 0 0 71039.719 0
13331.11 -7192.0977 353.88556 4292538093 -184.65366 -0 -0 0
13112.506 -4365.0244 463.25537 4291745247 -0 0 70405.086 0
13231.89 -6887.6831 61.800293 4284110696 -0 0 517197.06 0
13098.929 -5748.4268 441.09067 4293714884 -66.342926 -503.44601 0 0
13033.369 -4368.9429 470.47986 4292538093 2586.8706 0 -4179.4653 0
13283.235 -6719.6182 61.800293 4286807172 -0 0 517197.06 0
13033.646 -5029.5791 470.65192 4292538093 5392.4995 0 -8712.3672 0
13418.355 -5098.9399 491.78708 4291745247 -0 -0 -598968.25 0
13163.389 -6040.6748 61.800289 4284110696 -0 0 482970.09 0
13179.538 -4216.6211 100.6172 4291745247 0 -69781.047 0 0
13141.411 -5026.4771 491.78711 4291745247 -0 -0 -598968.25 0
13174.365 -4975.2905 491.78708 4291745247 -0 -0 -598968.25 0
13322.945 -5513.0884 61.800293 4284110696 -0 0 517197.06 0
13146.885 -4803.6538 61.800293 4281875515 -0 0 507643.38 0
13088.203 -6430.4204 502.10696 4291745247 -0 -0 -295294.47 0
13078.931 -6832.2891 463.2554 4291745247 -0 0 297395.44 0
13107.328 -4422.0933 463.25537 4291745247 -0 0 70405.086 0
13324.32 -6708.1875 61.800297 4284110696 -0 0 517197.06 0
13168.515 -5173.5972 61.800293 4284110696 -0 0 482970.09 0
13345.455 -5387.543 61.800293 4287070076 -0 0 543616 0
13159.182 -7109.2471 61.800293 4283188307 0 0 34226.984 0
13111.591 -6240.3374 491.78711 4291745247 0 0 -598968.25 0
13094.232 -6156.4287 491.78711 4291745247 0 0 -598968.25 0
13266.168 -5638.9248 491.78711 4291745247 -0 -0 -598968.25 0
13251.68 -7224.9004 78.461884 4292538093 0 10762.94 -0 0
13034.965 -5542.396 471.40106 4292538093 4994.3979 0 -8994.3936 0
13380.771 -4216.6211 319.08786 4291745247 0 -64232.812 0 0
13416.853 -4595.4653 491.78711 4291745247 -0 -0 -295294.47 0
13157.29 -7078.2627 187.51744 4292538093 79050.586 0 0 0
13044.771 -5912.168 476.5246 4292538093 4584.0781 0 -9255.5879 0
13393.186 -6520.8599 263.39349 4293714884 402.89505 309.25476 0 0
13331.11 -7213.7334 142.78574 4292538093 -2031.566 0 0 0
13209.665 -4873.7529 61.800293 4284110696 -0 0 482970.09 0
13071.722 -6934.9863 463.25537 4291745247 -0 0 297395.44 0
13184.79 -6816.8711 61.800289 4281151024 -0 0 517197.06 0
13137.311 -4304.2705 463.25537 4291745247 0 0 277714.53 0
13016.549 -6995.1807 212.63181 4292538093 0 68819.453 0 0
13095.777 -5611.5825 491.78711 4291745247 0 0 -598968.25 0
13091.274 -4447.4336 491.78711 4291745247 0 0 -295294.47 0
13214.473 -6208.0078 491.78711 4291745247 0 0 -598968.25 0
13320.283 -5367.5479 491.78711 4291745247 -0 -0 -598968.25 0
13157.29 -7184.8779 135.54401 4292538093 92222.148 -0 0 0
13425.896 -4395.0767 463.25537 4291745247 0 0 19605.674 0
13243.723 -4294.5791 491.78711 4291745247 -0 -0 -295294.47 0
13123.041 -6433.6157 502.10693 4291745247 -0 -0 -295294.47 0
13191.469 -5802.4326 61.800293 4281084469 -0 0 482970.09 0
13330.118 -4561.5806 491.78711 4291745247 -0 -0 -295294.47 0
13129.707 -7178.856 463.25537 4291745247 0 -0 72362.656 0
13326.182 -6060.0605 61.800293 4283056193 -0 0 517197.06 0
13397.499 -6460.8022 463.25537 4291745247 -0 0 297395.44 0
13243.717 -6333.1304 491.78711 4291745247 0 0 -598968.25 0
13149.697 -5719.2471 491.78711 4291745247 0 0 -598968.25 0
13171.638 -4961.2158 491.78711 4291745247 -0 -0 -598968.25 0
13393.84 -5978.1533 61.800293 4283979355 -0 0 543616 0
13289.654 -6934.7993 502.10693 4291745247 0 0 -295294.47 0
13389.39 -6025.5425 491.78711 4291745247 -0 -0 -598968.25 0
13278.151 -4263.2969 463.25537 4291745247 0 0 145543.02 0
13341.464 -5706.0747 491.78711 4291745247 -0 -0 -598968.25 0
13374.853 -7192.0908 258.77078 4292538093 0 73345.531 0 0
13170.897 -6098.3003 61.800289 4285163101 -0 0 482970.09 0
13157.29 -7072.7266 255.98071 4292538093 79050.586 0 0 0
13355.684 -4653.938 491.78711 4291745247 0 0 -295294.47 0
13179.063 -6672.8516 61.800293 4284110696 -0 0 517197.06 0
13274.291 -6625.1646 463.25537 4291745247 -0 0 297395.44 0
13020.325 -4333.5098 61.800293 4284110696 -0 0 277804.75 0
13313.19 -5493.8564 61.800293 4289967276 -0 0 517197.06 0
13418.312 -7138.8765 61.800293 4284110696 0 -0 119916.52 0
13351.808 -6133.1851 61.800293 4282400323 -0 0 543616 0
13386.203 -4587.1782 463.25537 4291745247 0 0 145543.02 0
13134.837 -4206.772 491.78711 4291745247 0 0 -295294.47 0
13230.465 -6990.1929 61.800293 4284110696 -0 0 517197.06 0
13370.078 -5860.4424 491.78711 4291745247 -0 -0 -598968.25 0
13063.253 -6956.5083 463.25537 4291745247 -0 0 297395.44 0
13420.608 -6720.8984 502.10693 4291745247 -0 -0 -295294.47 0
13143.276 -4038.8855 463.25537 4291745247 -0 0 70405.086 0
13077.314 -4352.8965 61.800293 4279968809 -0 0 277804.75 0
13097.807 -5466.6958 61.800293 4284110696 -0 0 507643.38 0
13162.014 -6662.4839 463.25537 4291745247 -0 0 297395.44 0
13414.682 -4807.3408 484.46298 4291745247 0 -10030.322 0 0
13233.041 -4216.6211 146.87689 4291745247 0 -69781.047 0 0
13279.325 -6816.0967 61.800293 4284110696 -0 0 517197.06 0
13278.236 -4089.7222 491.78711 4291745247 -0 -0 -295294.47 0
13299.422 -4039.6953 491.78711 4291745247 -0 -0 -295294.47 0
13140.521 -4216.6211 72.875908 4291745247 0 -68819.453 0 0
13173.109 -6772.6714 463.25537 4291745247 -0 0 297395.44 0
13035.898 -4441.8193 471.91995 4292538093 2395.8945 0 -4314.7578 0
13093.952 -4807.3408 470.01889 4291745247 -0 12984.231 0 0
13298.506 -4216.6211 110.68254 4291745247 0 -69781.047 0 0
13197.27 -4216.6211 244.3017 4291153110 0 -69781.047 0 0
13181.906 -6675.916 61.800293 4284110696 -0 0 517197.06 0
13229.076 -4660.2637 61.800293 4284044877 -0 0 482970.09 0
13030.881 -6753.7998 468.93997 4292538093 2446.1296 0 -3952.0781 0
13380.361 -4430.8462 463.25537 4291745247 0 0 71039.719 0
13411.532 -6275.1011 491.78711 4291745247 -0 -0 -598968.25 0
13025.222 -6776.9839 61.800297 4287137627 -0 0 47966.117 0
13201.52 -4894.877 491.78714 4291745247 -0 -0 -598968.25 0
13382.07 -4404.7109 61.800293 4284110696 -0 0 543616 0
13405.199 -5434.3218 491.78714 4291745247 -0 -0 -598968.25 0
13110.288 -6847.8135 463.25534 4291745247 -0 0 297395.44 0
13060.321 -4992.5781 61.800293 4284110696 -0 0 277804.75 0
13021.521 -6440.0386 154.68024 4292538093 -0 0 5013.813 0
13178.94 -5801.5083 61.800293 4285490541 -0 0 482970.09 0
13164.059 -4051.938 491.78711 4291745247 -0 -0 -295294.47 0
13379.035 -4351.3398 463.25537 4291745247 0 0 71039.719 0
13277.866 -5183.2295 61.800293 4280886314 -0 0 517197.06 0
13157.29 -6999.2085 244.32689 4293064696 79050.586 0 0 0
13201.836 -4051.2168 463.25534 4291745247 0 0 145543.02 0
13210.82 -6946.9858 463.25537 4291745247 0 -0 72362.656 0
13028.168 -5370.874 61.800293 4284110696 -0 0 507643.38 0
13263.723 -6202.7437 61.800289 4284110696 -0 0 517197.06 0
13381.88 -4864.0566 491.78711 4291745247 -0 -0 -598968.25 0
13086.59 -5297.002 491.78711 4291745247 0 0 -598968.25 0
13294.738 -4600.1064 463.25537 4291745247 0 0 277714.53 0
13268.389 -5802.7964 61.800293 4281610823 -0 0 517197.06 0
13123.475 -4777.8677 491.78711 4291745247 0 0 -295294.47 0
13098.479 -4350.6245 61.800293 4282859338 -0 0 277804.75 0
13157.29 -7033.3223 443.43436 4292761914 92222.148 -0 0 0
13222.1 -4772.0669 463.25537 4291745247 0 0 277714.53 0
13026.69 -7164.8389 466.21564 4292538093 2620.7185 0 -3813.9697 0
13264.223 -5386.2573 491.78711 4291745247 -0 -0 -598968.25 0
13370.689 -6140.0312 491.78711 4291745247 -0 -0 -598968.25 0
13176.779 -5588.4448 61.800289 4284110696 -0 0 482970.09 0
13252.229 -4544.3159 463.25537 4291745247 0 0 277714.53 0
13031.057 -4190.7437 463.25537 4291745247 -0 0 40893.176 0
13215.109 -6380.9062 491.78711 4291745247 0 0 -598968.25 0
13058.504 -4600.9043 491.78711 4291745247 0 0 -295294.47 0
13387.073 -5713.2036 61.800293 4284110696 -0 0 543616 0
13328.674 -6163.7603 61.800293 4284110696 -0 0 517197.06 0
13047.067 -7129.9238 463.25537 4291745247 0 0 31643.303 0
13088.828 -4449.3223 61.800293 4283780693 -0 0 277804.75 0
13149.165 -4251.2676 463.25537 4291745247 0 0 277714.53 0
13132.188 -5222.7881 61.800293 4284110696 -0 0 507643.38 0
13120.775 -4673.1499 463.25537 4291745247 0 0 277714.53 0
13431.66 -7010.3232 484.12061 4292538093 -98216.383 -0 0 0
13217.442 -6664.0703 463.25537 4291745247 -0 0 297395.44 0
13343.602 -6530.9014 61.800293 4284240467 -0 0 543616 0
13132.645 -5145.9072 61.800293 4287071345 -0 0 507643.38 0
13421.528 -7192.0908 116.05593 4290905347 0 72590.023 -0 0
13141.118 -4457.7388 491.78711 4291745247 0 0 -295294.47 0
13342.958 -7192.0908 386.01007 4292538093 0 73345.531 0 0
13235.516 -4485.5234 491.78711 4291745247 0 0 -295294.47 0
13035.008 -6389.7163 471.42535 4292538093 4994.3979 0 -8994.3936 0
13067.273 -6942.7158 61.800297 4285164416 -0 0 27980.605 0
13069.643 -4336.1846 61.800293 4288912043 -0 0 277804.75 0
13181.796 -4979.835 491.78711 4291745247 -0 -0 -598968.25 0
13265.174 -5634.2656 61.800293 4292004792 -0 0 517197.06 0
13327.721 -4292.4463 463.25537 4291745247 0 0 145543.02 0
13400.828 -7192.0908 106.92941 4293030492 0 72590.023 -0 0
13090.926 -6981.8574 463.25537 4291745247 -0 0 297395.44 0
13093.228 -6995.1807 323.13806 4292538093 0 64232.812 -0 0
13169.384 -4216.6211 113.63579 4291745247 0 -69781.047 0 0
13132.096 -6995.1807 145.60524 4292538093 0 64232.812 -0 0
13071.018 -4084.1753 463.25537 4291745247 -0 0 70405.086 0
13274.35 -5058.5645 61.800293 4284110696 -0 0 482970.09 0
13113.793 -4678.4629 175.88434 4293714884 -503.44601 66.342926 0 0
13426.365 -5700.3145 491.78714 4291745247 -0 -0 -598968.25 0
13058.803 -5423.8423 154.67537 4292538093 -0 0 5013.813 0
13265.551 -4216.6211 283.09616 4291482075 -0 -69781.047 -0 0
13157.29 -7211.6279 384.00198 4292538093 92222.148 -0 0 0
13214.789 -6296.5898 491.78711 4291745247 0 0 -598968.25 0
13109.594 -4789.0225 61.800293 4284110696 -0 0 507643.38 0
13118.33 -5417.8018 61.800293 4284110696 -0 0 507643.38 0
13056.74 -5183.252 486.23703 4292538093 50801.578 0 0 0
13297.607 -6969.9395 463.25537 4291745247 0 -0 151484.91 0
13274.855 -5349.4834 61.800293 4283385936 -0 0 517197.06 0
13323.904 -5696.6582 491.78711 4291745247 -0 -0 -598968.25 0
13065.357 -5332.7114 61.800293 4284110696 -0 0 507643.38 0
13362.564 -4988.603 61.800297 4284110696 -0 0 543616 0
13417.319 -4726.8584 463.25537 4291745247 0 0 71039.719 0
13123.009 -6675.3428 463.25537 4291745247 -0 0 297395.44 0
13221.477 -4582.2036 463.25537 4291745247 0 0 277714.53 0
13090.566 -4346.5586 61.800293 4284110696 -0 0 277804.75 0
13032.011 -3990.9346 459.24603 4284110696 1266.9567 -3525.9673 -0.32568359 0
13063.268 -6352.1641 61.800293 4286022781 -0 0 145896.98 0
13186.283 -5295.084 61.800293 4284110696 -0 0 482970.09 0
13103.859 -6528.6836 495.16998 4293714884 402.89505 -309.25476 0 0
13204.9 -5509.042 61.800289 4282072118 -0 0 482970.09 0
13030.109 -6502.8779 61.800293 4284835424 -0 0 145896.98 0
13340.191 -5991.5718 491.78711 4291745247 -0 -0 -598968.25 0
13215.617 -5870.543 61.800293 4284110696 -0 0 482970.09 0
13070.672 -6462.772 502.10693 4291745247 0 0 -295294.47 0
13199.282 -7132.9785 502.10693 4291745247 0 0 -295294.47 0
13020.004 -5370.5527 461.36609 4292538093 4905.9146 0 -6449.7476 0
13303.111 -6608.6396 502.1069 4291745247 -0 -0 -295294.47 0
13317.582 -7224.9004 435.63889 4292538093 -0 3279.7239 0 0
13030.429 -5412.8516 154.67537 4292538093 0 0 5541.6543 0
13114.965 -5144.4126 491.78711 4291745247 0 0 -598968.25 0
13129.414 -6714.2104 463.25537 4291745247 -0 0 297395.44 0
13300.707 -4621.8672 61.800293 4283251791 -0 0 482970.09 0
13098.094 -6960.4575 61.800293 4284110696 -0 0 27980.605 0
13375.234 -6045.166 491.78711 4291745247 -0 -0 -598968.25 0
13421.117 -4216.6211 210.25215 4291942626 0 -68819.086 -0 0
13242.486 -4807.3408 488.48981 4291745247 -0 12984.231 0 0
