# .PCD v0.7 - Point Cloud Data file format
VERSION 0.7
FIELDS x y z rgb normal_x normal_y normal_z curvature
SIZE 4 4 4 4 4 4 4 4
TYPE F F F U F F F F
COUNT 1 1 1 1 1 1 1 1
WIDTH 817
HEIGHT 1
VIEWPOINT 0 0 0 1 0 0 0
POINTS 817
DATA ascii
45.462868 78.287132 36.412689 4289053887 0 -5872.8125 0 0
44.326561 80.314644 96.391617 4286161305 0 0 -90.238594 0
158.4445 78.287132 47.085026 4288003766 0 -8645.8594 -0 0
32.974491 30.36702 68.736641 4290567126 18013.973 0 -0 0
32.974491 32.560989 48.752705 4291421152 18013.973 0 -0 0
63.505672 22.034447 60.252438 4292530632 39.23164 31.806938 0 0
32.974491 -44.405075 49.651855 4291618274 18013.973 -0 0 0
157.87361 -119.51558 0 4292209127 0 -0 34056.008 0
151.1813 -91.701508 0 4290304211 0 -0 34056.008 0
32.974491 -64.711189 37.774513 4289384392 18013.973 -0 0 0
32.974491 -54.029774 56.707756 4290436567 18013.973 -0 0 0
150.8123 37.054432 0 4289844689 -0 0 34056.008 0
182.42474 78.287132 39.558308 4288464321 0 -8645.8594 -0 0
128.54393 -6.2912021 19.950422 4292272092 -400.86569 0.00033534318 -0.54052734 0
53.447121 23.891113 51.525246 4292530632 6.1420703 -20.690725 0 0
32.974491 49.555618 23.65218 4291552481 18013.973 0 -0 0
79.265343 57.614391 0 4290698712 -0 0 34056.008 0
78.558212 81.037132 67.775703 4288003766 -0 -108.21008 -0 0
156.14987 78.287132 69.104065 4288003766 0 -5345.4766 0 0
46.392204 -22.977762 76.294144 4292209127 -137.84158 0 34.533371 0
143.08066 67.805908 0 4291026136 -0 0 34056.008 0
116.69086 78.287132 90.781998 4288068019 0 -5345.4766 0 0
32.974491 1.5464859 94.595627 4291486688 18013.973 -0 0 0
126.90179 -2.0547657 21.38707 4283400386 -387.40915 0.00031501055 -0.5079155 0
32.974491 5.470829 54.698116 4291619814 18013.973 0 -0 0
176.06944 28.979008 0 4292209127 0 -0 34056.008 0
155.93852 78.287132 52.153755 4288924359 0 -8645.8594 -0 0
60.52602 78.287132 37.865421 4289976016 0 -2373.0256 0 0
159.18512 78.287132 72.857178 4288726462 0 -5345.4766 0 0
50.736668 -93.809128 0 4292209127 -0 0 34056.008 0
44.408802 -40.198959 29.407696 4294967295 1.0132617 2.4005451 0 0
51.806915 7.1710482 48.404716 4288649360 0.06997519 0 0.53172904 0
34.63945 78.28714 80.188446 4288003766 0 -679.55591 0 0
125.78607 -44.324043 0 4292209127 0 -0 34056.008 0
133.72855 20.268606 0 4289710789 -0 0 34056.008 0
32.974487 -69.415558 96.269684 4289713357 18013.973 -0 0 0
141.21619 36.917946 0 4291156439 -0 0 34056.008 0
171.46793 78.287132 84.684731 4288464830 0 -5345.4766 0 0
115.66103 36.804787 0 4289448902 -0 0 34056.008 0
85.032562 30.483509 7.3203015 4288649360 0 -232.98875 -0 0
32.974487 8.8132248 35.15239 4290172368 18013.973 0 -0 0
128.53477 -12.161984 26.740429 4292272092 -400.86569 0.00033534318 -0.54052734 0
102.5564 53.732002 0 4292209127 -0 0 34056.008 0
138.84334 -38.133072 0 4289843403 0 -0 34056.008 0
60.299706 0.73856443 36.472256 4292272092 -0.014146674 52.720982 0.0099134445 0
66.896629 -77.676636 0 4292209127 -0 0 34056.008 0
77.102371 80.651451 91.259811 4288003766 28.124998 -0 0 0
32.974491 -43.498016 29.376719 4291617504 18013.973 0 -0 0
102.24791 81.037132 95.399406 4288003766 0 -42.409073 0 0
32.974491 -88.342697 15.966532 4290632406 18013.973 0 -0 0
32.974487 62.293308 4.7809691 4289582541 1187.4786 0 -0 0
32.974491 -93.358841 49.186314 4291618274 18013.973 -0 0 0
50.520279 -47.147659 89.116188 4294967295 0 0 54.125488 0
33.376759 78.287125 74.373039 4288003766 0 -679.55591 0 0
32.974491 -58.97702 58.755096 4291421152 18013.973 -0 0 0
62.485916 20.642868 60.938648 4282794094 47.294338 -58.334202 0 0
181.3452 44.37915 0 4292209127 0 -0 34056.008 0
71.883385 81.037132 84.032288 4288003766 0 -96.016708 0 0
32.974491 26.065269 72.212502 4289976016 18013.973 0 -0 0
163.33861 -97.507141 0 4292209127 0 -0 34056.008 0
83.402008 24.379007 66.091568 4288586930 -46.013962 59.966373 0 0
113.19188 -5.1398478 9.7954121 4292272092 2.0121491 0.95365739 0.59926224 0
32.974491 -79.63765 42.05439 4290238418 18013.973 -0 0 0
32.974491 57.132919 27.406357 4289712074 18013.973 0 -0 0
52.881866 -28.744864 43.115795 4292272092 -136.62373 -0.05712226 92.072739 0
60.011055 82.03714 72.454529 4288003766 -0 -1589.2924 -0 0
32.974491 11.199196 41.42709 4290041809 18013.973 0 -0 0
51.119198 -23.168406 41.780693 4292272092 -41.655571 -0.01811441 29.190689 0
82.702713 55.407417 0 4292209127 -0 0 34056.008 0
45.145119 -107.31573 0 4290171854 0 -0 34056.008 0
43.480164 -23.731892 31.658657 4292272092 -282.08884 0.00042823702 -0.69067383 0
36.779613 -5.7918296 2.8 4292272092 0 0 35.251495 0
46.616177 82.037132 49.987194 4288003766 0 -1589.2924 0 0
55.467575 30.2777 0 4292209127 -0 0 34056.008 0
202.32431 78.287132 91.429962 4286357914 0 -8645.8594 -0 0
81.069847 -52.638802 0 4290567383 -0 0 34056.008 0
177.67308 78.287132 12.157542 4288003766 0 -2373.0256 0 0
60.010971 -4.2778387 0 4292209127 -0 0 34056.008 0
125.43196 60.227547 0 4291486688 -0 0 34056.008 0
36.925724 78.287132 15.989243 4288068532 0 -5872.8125 0 0
112.62143 -81.427917 0 4289120966 0 -0 34056.008 0
32.974491 -16.914734 26.746738 4289185730 18013.973 0 -0 0
59.396027 -73.869987 0 4290107602 -0 0 34056.008 0
53.828594 -108.23782 0 4289382852 0 -0 34056.008 0
171.62834 31.539343 0 4289515724 0 -0 34056.008 0
60.367477 -93.928864 0 4292209127 0 -0 34056.008 0
75.898514 43.286247 0 4292209127 -0 0 34056.008 0
32.974491 70.961426 46.106663 4290106832 18013.973 0 -0 0
55.747154 82.037132 47.444885 4288003766 0 -1589.2924 0 0
167.49107 -3.088728 0 4292209127 0 -0 34056.008 0
71.465057 81.463882 45.068649 4288003766 -53.557045 0 0 0
41.642895 -40.033012 18.466305 4294967295 9.1974907 -7.0574145 0 0
173.17628 48.310936 0 4292538092 -0 0 34056.008 0
92.408096 -98.107552 0 4291222745 0 -0 34056.008 0
90.740517 0.16297913 0 4290960344 -0 0 34056.008 0
109.10954 -16.334873 0 4292209127 -0 0 34056.008 0
65.817055 -37.208977 22.540892 4289572269 0.62533998 6.8545341e-07 0.82070571 0
97.881065 43.335312 0 4290958803 -0 0 34056.008 0
79.068695 56.402649 0 4290435797 -0 0 34056.008 0
91.101631 -32.857422 28.50355 4292272092 0 -73.389359 0 0
66.25071 82.037132 85.676788 4288003766 -0 -1589.2924 -0 0
131.48753 -107.83711 0 4290630095 0 -0 34056.008 0
85.795303 -26.306358 0 4290237648 -0 0 34056.008 0
104.7495 76.585953 0 4292209127 -0 0 34056.008 0
193.41434 78.287132 83.912552 4288332474 0 -8645.8594 -0 0
194.00511 -108.70969 0 4292209127 0 -0 34056.008 0
187.20654 35.29921 0 4292209127 0 -0 34056.008 0
32.974491 -62.378563 98.963806 4288003766 856.05042 -0 0 0
84.841118 78.614487 40.141621 4288003766 0 0 156.37498 0
46.949947 6.9037619 40.792316 4292272092 26.969095 2.3754621 0 0
50.108711 -78.989105 0 4288202176 -0 0 34056.008 0
40.971325 39.01276 0 4289843403 -0 0 34056.008 0
79.820114 24.750801 51.117588 4288649360 0 -233.05893 86.731644 0
154.00955 -101.03374 0 4291157980 0 -0 34056.008 0
128.53479 -31.652798 26.849598 4292272092 -7.7132978 -0.005766537 -0.010074615 0
56.291748 -118.29681 0 4291419354 0 -0 34056.008 0
36.491814 -22.600449 80.330154 4292209127 0 55.779495 -0 0
80.037895 82.037132 95.020126 4288003766 -0 -1585.0012 -0 0
81.643692 0.74511719 24.932178 4292272092 -0 23.929941 0 0
32.974491 -6.3289642 12.300081 4289515978 18013.973 0 -0 0
64.265106 82.037132 84.95372 4288003766 -0 -1589.2924 -0 0
49.543739 8.9166527 68.079681 4288649360 14.565972 0 0 0
42.669468 82.037132 83.209389 4288003766 0 -1589.2924 0 0
91.414253 56.545826 0 4291156952 -0 0 34056.008 0
154.62984 -103.4154 0 4291092442 0 -0 34056.008 0
192.79395 78.287132 32.625271 4288003766 0 -8645.8594 -0 0
32.974491 -105.39146 58.102371 4289646281 18013.973 -0 0 0
140.11293 78.28714 7.3069201 4288003766 0 -5872.8125 0 0
110.10653 78.287132 7.8541784 4288003766 0 -5872.8125 0 0
89.251053 78.287132 28.33709 4288003766 0 -5872.8125 0 0
32.974491 -67.741409 6.5855727 4289910223 18013.973 0 -0 0
163.64598 -2.873497 0 4290894551 0 -0 34056.008 0
53.686283 23.972406 54.700306 4292530632 11.288007 -18.396439 0 0
32.974491 -49.198391 10.018047 4289514438 18013.973 0 -0 0
128.53354 -13.377201 27.645149 4292272092 -400.86581 0.00033527613 -0.54052734 0
56.016586 -11.620329 47.634377 4292272092 -11.886774 -0.011506975 11.23157 0
46.088936 5.3124027 26.439796 4292272092 9.2750683 -25.435755 0 0
89.926971 25.831951 52.466698 4288649360 0 137.7103 -51.248005 0
32.974491 74.045776 17.114801 4290173395 18013.973 0 -0 0
115.94855 -17.413916 12.010275 4292272092 41.912579 0.00022578239 10.894452 0
32.974491 -86.930603 83.586136 4289383879 18013.973 -0 0 0
64.02491 -21.717987 8.9382162 4284648393 123.28336 0.00065050833 25.228651 0
45.521088 -39.386227 65.102417 4282071867 0 0.25126252 -0.033044912 0
32.974491 44.221718 27.297829 4289910736 18013.973 0 -0 0
32.974491 -99.299072 5.9071989 4289582541 1187.4786 -0 0 0
146.02849 -50.960693 0 4290433999 0 -0 34056.008 0
158.8568 -117.82211 0 4290567126 0 -0 34056.008 0
141.74158 34.235744 0 4291879905 -0 0 34056.008 0
173.5018 -76.709465 0 4292209127 0 -0 34056.008 0
42.583286 82.03714 83.288277 4288003766 0 -1589.2924 0 0
67.025482 7.3694038 0 4288594622 -0 0 34056.008 0
60.105976 76.609238 0 4291091159 -0 0 34056.008 0
105.67095 47.805325 0 4292209127 -0 0 34056.008 0
41.771481 -39.621681 10.703531 4294967295 11.493635 -1.5133976 0 0
68.519699 -11.37499 40.624222 4292272092 332.64557 -0.28441659 476.77878 0
179.44345 -90.898529 0 4292209127 0 -0 34056.008 0
191.92717 -19.773136 0 4292209127 0 -0 34056.008 0
32.974495 74.018723 8.5062342 4290107602 18013.973 0 -0 0
119.10091 0.86043942 31.210665 4292272092 -0.00034917518 152.62721 0.26497746 0
67.46212 0.74135011 31.878532 4283659950 -0.014146674 52.720982 0.0099134445 0
140.93201 -41.240845 0 4289384138 0 -0 34056.008 0
190.3739 8.7400951 0 4289512897 0 -0 34056.008 0
44.046623 78.287132 35.75248 4289054144 0 -5872.8125 0 0
56.693428 25.710026 1.8558044 4292530632 18.288851 -34.368103 0 0
177.49501 72.774048 0 4292209127 -0 0 34056.008 0
43.411758 -48.902184 43.866009 4289572269 -13.412668 2.1483746 0 0
112.02834 -97.855667 0 4292209127 0 -0 34056.008 0
54.535553 82.037125 64.898483 4288003766 0 -1589.2924 0 0
46.555481 78.287132 25.278904 4287540905 0 -5872.8125 0 0
149.18811 67.983627 0 4292209127 -0 0 34056.008 0
101.88107 82.037132 68.830322 4288003766 -0 -1585.0012 -0 0
98.707489 74.239494 0 4292209127 -0 0 34056.008 0
119.57985 -2.8092575 0 4292209127 -0 0 34056.008 0
204.29163 78.287132 61.474129 4288003766 0 -8645.8594 -0 0
75.624756 17.348339 31.316109 4288649360 0 -1.1756877 0 0
36.843498 -39.752342 0 4292209127 -0 0 34056.008 0
32.974491 35.497749 29.538208 4291618274 18013.973 0 -0 0
96.330948 -18.59724 36.199787 4292272092 -54.310711 -0.14371257 192.0764 0
32.974491 -41.720657 43.062054 4289251523 18013.973 -0 0 0
40.724712 -50.323685 21.333801 4289572269 7.6254349 12.394149 4.6899542e-05 0
86.011551 32.473495 42.153477 4288649360 0 402.55057 -0 0
66.880127 14.391109 63.975136 4288649360 0.34049362 -0.28946218 0 0
88.29155 81.921242 95.100288 4288003766 -0 -0 -29.533813 0
75.117805 42.068481 0 4292209127 -0 0 34056.008 0
43.345654 -22.766592 22.618673 4292272092 -0.0248079 -0.010912009 17.584286 0
32.974491 -81.794952 30.355776 4289382852 18013.973 -0 0 0
51.656097 -6.6202841 0 4290368464 -0 0 34056.008 0
32.974495 75.497932 94.955811 4290305494 18013.973 0 -0 0
54.238472 25.681154 33.814079 4292530632 18.396439 11.287754 0 0
32.974491 64.176567 57.471912 4289779920 18013.973 0 -0 0
74.020279 20.354235 35.525299 4288649360 -0.018380845 0 0 0
128.20712 -27.964735 17.169178 4282294606 387.29709 -0.00031501055 0.50776863 0
89.602936 17.547411 0 4292209127 -0 0 34056.008 0
84.363777 25.144922 50.620552 4288649360 0 137.7103 -51.248005 0
141.59645 78.287132 29.730978 4288003766 0 -8645.8594 -0 0
32.974491 -74.202309 37.005737 4287344296 18013.973 -0 0 0
42.28754 -116.6247 0 4289120966 0 -0 34056.008 0
105.35314 -8.990839 15.407883 4292272092 -6.2267232 0.00010194257 4.0290213 0
191.15074 -115.06258 0 4292209127 0 -0 34056.008 0
60.047958 78.287132 99.057129 4288396214 0 -743.63971 0 0
64.49633 -47.401909 23.277802 4289572269 0 -1.3635669 0 0
32.974487 26.670544 6.3722887 4289844430 18013.973 0 -0 0
166.68208 71.786453 0 4292209127 -0 0 34056.008 0
86.800972 30.483509 26.399237 4288649360 0 -232.98875 0 0
175.96446 -116.08269 0 4291552480 0 -0 34056.008 0
51.739075 1.228529 57.357971 4288649360 0 -11.522442 0 0
114.96923 -30.096361 37.235832 4292272092 -0.90671468 -0.44446373 687.84271 0
61.176155 -41.284016 2.3242531 4289572269 -19.177027 0 43.843369 0
160.73784 -4.1463737 0 4291814882 0 -0 34056.008 0
95.03804 38.381653 0 4289975246 -0 0 34056.008 0
136.04141 78.287132 53.534481 4288003766 0 -8645.8594 -0 0
32.974491 37.124863 64.632179 4291618531 18013.973 0 -0 0
196.94914 78.287132 78.904922 4288003766 0 -8645.8594 -0 0
47.605404 78.287132 14.14965 4288003766 0 -5872.8125 0 0
32.974491 -35.84201 29.569492 4289910223 18013.973 0 -0 0
32.974491 60.998875 59.194118 4291358182 18013.973 0 -0 0
189.0264 -67.608154 0 4290368464 0 -0 34056.008 0
197.0018 78.287132 8.6943541 4287673774 0 -2373.0256 0 0
82.868774 82.037132 59.35955 4288003766 0 -1585.0012 0 0
54.779465 11.135466 46.663475 4281875515 16.61355 -0 16.613518 0
133.15443 -43.980659 0 4292209127 0 -0 34056.008 0
32.974491 -84.851807 78.766235 4290239188 18013.973 -0 0 0
38.440628 78.287132 92.618118 4287805360 -0 -420.14914 -0 0
90.520981 23.596394 48.015541 4288649360 0 -233.05893 86.731644 0
83.91684 -116.33871 0 4292209127 0 -0 34056.008 0
64.699432 79.62558 40.141621 4288003766 0 0 156.37498 0
59.919334 13.477888 49.235634 4288586930 0.083103113 0.064448334 0.053594582 0
32.974491 -75.077728 16.060467 4291552738 18013.973 0 -0 0
125.76778 -7.0046043 0 4292209127 -0 0 34056.008 0
35.853062 78.287132 27.750496 4288793797 0 -679.55591 0 0
32.974491 75.102806 58.483612 4289844943 18013.973 0 -0 0
32.974487 -81.549416 33.758408 4289843403 18013.973 -0 0 0
32.974491 40.273884 61.178459 4289711817 18013.973 0 -0 0
84.0298 82.037132 75.426552 4288003766 0 -1585.0012 0 0
169.04845 -30.420118 0 4292209127 0 -0 34056.008 0
74.787514 -32.635468 26.017506 4291680474 0.014146607 -52.586525 -0.0098276138 0
128.20987 -4.7353368 15.081304 4292272092 387.409 -0.00031514093 0.5079155 0
96.06131 18.961096 22.488548 4288586930 87.255424 0 0 0
75.601418 78.287132 25.849016 4288003766 0 -5872.8125 0 0
42.715698 -56.084171 58.919712 4292530632 -2.400547 -14.987078 0 0
85.920853 0.85426241 31.498974 4292272092 -0.00017276406 75.506729 0.13108826 0
73.927963 -72.357643 0 4292209127 -0 0 34056.008 0
93.903595 -11.615147 0 4292209127 -0 0 34056.008 0
117.52766 -101.49294 0 4291551197 0 -0 34056.008 0
91.917496 82.037132 57.789974 4288003766 0 -1585.0012 0 0
32.974491 21.257343 54.384357 4291421922 18013.973 0 -0 0
187.95274 -98.527534 0 4292209127 0 -0 34056.008 0
100.17021 82.037132 61.165581 4288003766 -0 -1585.0012 -0 0
176.28801 -12.131639 0 4289449157 0 -0 34056.008 0
175.11484 78.287125 66.811226 4289053887 0 -8645.8594 -0 0
189.45233 -118.12722 0 4292209127 0 -0 34056.008 0
145.35561 11.04903 0 4292209127 -0 0 34056.008 0
32.974491 24.600533 3.6149766 4289582541 1187.4786 0 -0 0
89.846603 -56.708473 0 4292209127 0 -0 34056.008 0
32.974491 -107.9454 92.215973 4291749090 18013.973 -0 0 0
32.974491 75.410629 80.587486 4290173908 18013.973 0 -0 0
112.04228 -58.440388 0 4292209127 0 -0 34056.008 0
108.72719 -44.253315 0 4292209127 0 -0 34056.008 0
87.821915 32.473499 32.994076 4288649360 0 402.55057 -0 0
36.146782 -11.010762 0 4290040782 -0 0 34056.008 0
137.42401 -9.0195122 0 4292209127 0 -0 34056.008 0
32.974491 -119.13289 94.366272 4289712074 18013.973 -0 0 0
73.770103 80.212761 96.391617 4288003766 0 0 -8.6501884 0
32.974491 -46.373974 53.083023 4291552481 18013.973 -0 0 0
172.0695 -106.50336 0 4292077541 0 -0 34056.008 0
122.17831 78.287125 49.888935 4288003766 0 -5345.4766 0 0
43.476624 -17.93141 33.108707 4292272092 -282.08884 0.00042823702 -0.69067383 0
32.974491 -84.907387 10.079777 4290239188 18013.973 0 -0 0
32.974491 3.1135216 44.169479 4291684066 18013.973 0 -0 0
32.974491 37.189682 76.880386 4291421922 18013.973 0 -0 0
48.66468 -29.945721 85.36483 4292209127 -126.70415 -0.00012588501 31.743216 0
44.921494 78.287132 9.8494835 4288724922 0 -5872.8125 0 0
112.91 -24.744141 1.3542397 4281368382 0 2.6532795 0 0
53.791859 4.1487913 58.015285 4288649360 -0.76828414 0 -0.043999787 0
32.974491 17.846916 64.843895 4291552481 18013.973 0 -0 0
128.53822 -13.039426 24.175985 4292272092 -400.86569 0.00033534318 -0.54052734 0
32.974491 -42.216946 49.856106 4287475882 18013.973 -0 0 0
131.41782 -50.807991 0 4291159263 0 -0 34056.008 0
32.974487 -4.4245644 12.021671 4290173908 18013.973 0 -0 0
86.346107 -56.216492 0 4292209127 -0 0 34056.008 0
77.698555 78.287132 18.257139 4288398015 0 -5872.8125 0 0
162.74176 78.287132 86.61499 4288266429 0 -5345.4766 0 0
33.951279 -73.253128 0 4292209127 -0 0 34056.008 0
166.16655 78.287132 53.986893 4288003766 0 -8645.8594 -0 0
32.974491 -78.453972 25.403385 4291552481 18013.973 -0 0 0
63.309361 -19.393541 22.683613 4282536063 -2.1959066 -0.95553237 1539.5508 0
95.781883 -19.253223 36.044044 4292272092 -54.310711 -0.14371257 192.0764 0
32.974487 -62.667606 95.94751 4291486688 18013.973 -0 0 0
86.608749 32.386154 48.480038 4288586930 -0.598324 4.5453005 0 0
32.974491 9.515583 6.8576012 4289976016 18013.973 0 -0 0
159.32906 -109.29768 0 4292209127 0 -0 34056.008 0
32.974495 -85.82032 17.996155 4290502360 18013.973 0 -0 0
94.161072 -25.348297 35.581196 4292272092 -54.310711 -0.14371257 192.0764 0
32.974491 46.528194 89.899185 4289843403 18013.973 -0 0 0
74.656044 -60.7565 0 4291091159 -0 0 34056.008 0
56.113541 -53.209747 0 4292209127 -0 0 34056.008 0
200.05496 -14.513414 0 4292209127 0 -0 34056.008 0
32.974491 10.438469 67.236435 4290502360 18013.973 -0 0 0
108.72784 81.037132 59.237785 4288003766 0 -69.300934 0 0
33.213268 55.184525 0 4292209127 -0 0 34056.008 0
130.55499 -25.048235 19.148775 4292272092 -0.1147213 -0.049966134 80.538574 0
193.34618 78.28714 28.576275 4288003766 0 -8645.8594 -0 0
178.02251 76.30616 0 4292209127 -0 0 34056.008 0
76.466644 -22.820999 36.477062 4292272092 31.209463 -0.03146138 48.672913 0
118.84563 78.287132 55.171471 4288790972 0 -5345.4766 0 0
32.974491 -105.93171 60.188633 4288002226 18013.973 -0 0 0
117.44734 67.77935 0 4289646024 -0 0 34056.008 0
83.10569 -10.626155 34.086449 4292272092 3.5780494 -0.03687501 57.070808 0
197.28061 78.287125 81.400101 4288792255 0 -8645.8594 -0 0
192.06056 -59.04615 0 4292931564 0 -0 34056.008 0
102.09103 -21.391235 13.460122 4292272092 -0.039989471 -126.1964 -0.0096092224 0
85.456429 32.473503 9.5077877 4288649360 0 402.55057 0 0
149.79747 78.287132 61.878304 4288003766 0 -8645.8594 -0 0
32.974491 13.915302 25.690098 4290502360 18013.973 0 -0 0
124.57082 -7.6951408 0 4290501590 -0 0 34056.008 0
112.66014 -4.1743488 5.7419243 4292272092 0.26448241 7.811375e-05 3.0605116 0
68.055099 82.037132 53.399689 4288003766 -0 -1589.2924 -0 0
142.31921 -37.40102 0 4292209127 0 -0 34056.008 0
122.8937 -32.042011 36.852154 4292272092 -0.016783297 -6.7800875 12.731976 0
90.075302 12.511602 0 4288595905 -0 0 34056.008 0
118.92197 -78.860901 0 4289449672 0 -0 34056.008 0
98.304024 78.287132 38.905338 4288003766 0 -2373.0256 0 0
128.54306 -0.30082637 20.60537 4292272092 -4.9513769 0.010968797 -0.0066690445 0
133.4077 -41.484932 0 4292209127 0 -0 34056.008 0
59.718185 -72.298866 0 4289714386 -0 0 34056.008 0
32.974491 59.781693 3.7951109 4289582541 1187.4786 0 -0 0
40.111092 -22.600451 83.762802 4292209127 0 68.31842 -0 0
161.49738 78.28714 36.654449 4288133812 0 -8645.8594 -0 0
52.506927 31.084473 0 4292209127 -0 0 34056.008 0
75.184158 -40.114822 0 4292209127 -0 0 34056.008 0
175.69234 -93.481537 0 4289844943 0 -0 34056.008 0
103.65267 78.287132 25.84716 4288003766 0 -5872.8125 0 0
43.538708 -48.109604 58.009148 4289572269 -13.412668 2.1483746 0 0
130.82666 -45.189186 0 4292209127 0 -0 34056.008 0
116.79413 78.287132 78.292274 4287803820 0 -5345.4766 0 0
172.05281 78.287132 77.703613 4288003766 0 -5345.4766 0 0
99.541801 26.328354 0 4291025366 -0 0 34056.008 0
155.91495 -37.787918 0 4290961371 0 -0 34056.008 0
46.405594 -23.12925 76.347603 4292209127 -137.84158 0 34.533371 0
173.30707 -85.073288 0 4292209127 0 -0 34056.008 0
128.54204 -4.1129632 21.348728 4292272092 -400.86569 0.00033534318 -0.54052734 0
61.269314 -46.516293 21.205936 4289572269 -73.406044 -0 0 0
65.612938 78.287132 9.5607338 4288330425 0 -5872.8125 0 0
192.31522 70.945671 0 4292209127 -0 0 34056.008 0
134.29797 -46.082947 0 4289384392 0 -0 34056.008 0
32.974491 -19.531708 75.341469 4287607468 18013.973 -0 0 0
71.115997 78.287132 5.8027406 4289582541 -0 -1031.547 -0 0
32.974495 -93.048691 28.222586 4291618274 18013.973 -0 0 0
80.544456 30.483509 23.815165 4288649360 0 -232.98875 0 0
83.367371 81.037132 40.570419 4288003766 0 -42.409073 0 0
126.29753 78.287132 53.556694 4290042840 0 -5345.4766 0 0
67.40345 81.037132 41.306492 4288003766 0 -39.956394 0 0
46.948048 6.9130077 33.035213 4292272092 25.436745 9.2740793 -0 0
159.35651 -106.86436 0 4288926410 0 -0 34056.008 0
61.269314 -33.134018 17.46837 4289572269 -10.498836 0 0 0
108.99491 81.03714 44.604172 4288003766 0 -72.635933 -0 0
73.761551 23.336208 46.008507 4288649360 -13.329678 0 0 0
184.42186 -117.17555 0 4288136383 0 -0 34056.008 0
93.35881 25.674061 52.042435 4288649360 3.8146973e-06 74.691444 -27.795965 0
188.3226 78.287132 53.803871 4288003766 0 -8645.8594 -0 0
56.863556 -5.551013 0 4291552480 -0 0 34056.008 0
165.35483 78.287132 78.815308 4288003766 0 -5345.4766 0 0
168.77249 -27.77898 0 4292209127 0 -0 34056.008 0
32.974491 -115.87468 53.155087 4290041809 18013.973 -0 0 0
136.05287 -66.624252 0 4292209127 0 -0 34056.008 0
78.147263 -21.242718 35.528847 4292272092 24.751448 -0.033701956 52.159927 0
33.756561 17.28805 0 4292209127 -0 0 34056.008 0
32.974491 -15.684719 41.969257 4290238418 18013.973 0 -0 0
46.449829 -43.943817 0 4290040782 -0 0 34056.008 0
32.974495 64.645462 14.693432 4291421152 18013.973 0 -0 0
171.08969 39.190933 0 4290565585 0 -0 34056.008 0
131.15001 -10.797624 29.640614 4292272092 400.86581 -0.00033514202 0.54052734 0
32.974491 -84.581978 21.203003 4290502360 18013.973 0 -0 0
162.02373 -70.568016 0 4291223773 0 -0 34056.008 0
149.79651 78.287125 11.659301 4288003766 0 -5872.8125 0 0
32.974491 39.617966 89.245895 4290303441 18013.973 -0 0 0
128.53549 -3.8397553 26.206345 4292272092 -400.86569 0.00033534318 -0.54052734 0
59.82589 18.486254 61.971325 4292530632 47.294338 -58.334202 0 0
47.762665 -16.212858 75.541443 4286478430 298.29144 0 -74.730972 0
75.581688 17.021074 37.418266 4288649360 0 -2.1274238 0 0
164.61545 78.287125 90.951431 4288003766 0 -5345.4766 0 0
151.59204 78.287132 29.485382 4289056458 0 -8645.8594 -0 0
32.974491 -31.195465 83.050049 4291617504 18013.973 -0 0 0
32.974491 -73.638626 69.149887 4289976016 18013.973 -0 0 0
196.12305 6.5445151 0 4289255375 0 -0 34056.008 0
32.974491 -87.828918 96.194359 4288527543 18013.973 -0 0 0
41.667847 -40.000496 35.170708 4294967295 9.1974907 -7.0574145 0 0
67.612831 60.313866 0 4292209127 -0 0 34056.008 0
45.495544 48.224937 0 4292209127 -0 0 34056.008 0
47.99107 -24.796223 82.676109 4292209127 -35.178364 -1.0967255e-05 8.8132277 0
32.974491 -7.7962646 41.144955 4288265398 18013.973 0 -0 0
189.10049 -39.001057 0 4290895063 0 -0 34056.008 0
79.768661 58.084953 0 4290435540 -0 0 34056.008 0
79.861191 81.037132 40.328117 4288003766 0 -42.409073 0 0
32.974491 50.879265 39.230412 4291618274 18013.973 0 -0 0
38.000183 78.287132 99.648911 4287805360 0 -743.63971 0 0
33.094048 -26.97333 0 4292209127 -0 0 34056.008 0
43.976467 -17.001122 40.035645 4292272092 -0.37369794 -0.043191075 1.3658924 0
32.974491 -92.739914 34.788452 4291486688 18013.973 -0 0 0
48.559017 -42.861248 69.798965 4294967295 0 -0.20623539 0.15827478 0
44.000046 82.037132 74.873962 4288003766 0 -1589.2924 0 0
103.34975 -37.054501 0 4292209127 -0 0 34056.008 0
32.974491 -65.923752 79.436966 4289712074 18013.973 -0 0 0
108.58571 78.287132 29.96917 4288003766 0 -2373.0256 0 0
96.547096 -36.245659 0 4290565585 -0 0 34056.008 0
183.16386 73.037277 0 4292209127 -0 0 34056.008 0
82.038101 78.287132 10.036443 4288790976 0 -5872.8125 0 0
204.48769 -108.75413 0 4292209127 0 -0 34056.008 0
156.56908 71.181198 0 4292209127 -0 0 34056.008 0
194.18694 78.287132 72.23362 4288003766 0 -8645.8594 -0 0
32.974491 43.938721 62.941303 4289976016 18013.973 0 -0 0
202.50114 13.114404 0 4291288025 0 -0 34056.008 0
32.974491 57.585052 82.407303 4289844430 18013.973 0 -0 0
32.974487 -20.398586 65.777603 4290041809 18013.973 -0 0 0
50.733971 -46.400352 76.616768 4289657582 282.24069 63.656033 -0 0
32.974495 -16.738773 38.802227 4289777867 18013.973 0 -0 0
101.02361 78.287132 33.392891 4287607468 0 -2373.0256 0 0
68.28167 65.652763 0 4292209127 -0 0 34056.008 0
49.33622 80.804314 96.391617 4287870640 -0 -0 -90.238594 0
32.974491 -60.955997 47.082352 4291618274 18013.973 -0 0 0
194.33493 62.458973 0 4292209127 0 -0 34056.008 0
54.4147 1.228529 56.02121 4288649360 0 -32.841011 0 0
107.69906 -6.2934875 9.6715164 4285816165 -1.6511594 1.3849975 0.45376873 0
82.330421 78.287125 30.362514 4288003766 0 -5872.8125 0 0
32.974491 38.83091 8.5183372 4290764505 18013.973 0 -0 0
76.363167 -110.59702 0 4291419611 0 -0 34056.008 0
52.857693 8.1878471 67.439362 4288649360 0 0 38.634651 0
151.28607 78.287132 75.951797 4285832601 0 -5345.4766 0 0
140.70622 78.28714 38.551693 4288003766 0 -8645.8594 -0 0
48.584866 82.037132 50.469887 4288003766 0 -1589.2924 0 0
32.974491 -97.316498 34.912861 4290435540 18013.973 -0 0 0
167.68063 78.287132 46.376904 4288003766 0 -8645.8594 -0 0
52.181572 -30.927628 89.737915 4292209127 12.393068 0 49.467152 0
32.974491 -41.506794 46.324524 4289383109 18013.973 -0 0 0
195.21283 -95.968811 0 4291812829 0 -0 34056.008 0
46.752762 10.513544 0 4292209127 -0 0 34056.008 0
128.52086 -108.30988 0 4290238161 0 -0 34056.008 0
81.936417 37.47543 2.0994844 4288649360 0 62.542656 0 0
195.10391 -71.235977 0 4289908682 0 -0 34056.008 0
32.974491 -96.987236 63.114258 4290238418 18013.973 -0 0 0
44.285042 -35.888393 45.592522 4294967295 2.9060307 0 0 0
171.35991 -27.941992 0 4292209127 0 -0 34056.008 0
165.63574 -22.12392 0 4292209127 0 -0 34056.008 0
74.484268 72.319489 0 4289975246 -0 0 34056.008 0
45.323986 -70.891747 0 4292209127 -0 0 34056.008 0
55.607544 46.690075 0 4289515465 -0 0 34056.008 0
32.974491 -73.569153 61.02906 4289777867 18013.973 -0 0 0
156.92249 16.719299 0 4292209127 0 -0 34056.008 0
113.60992 -78.453117 0 4292209127 0 -0 34056.008 0
32.974491 -48.285873 79.605576 4287411372 18013.973 -0 0 0
41.760674 -41.98938 67.449203 4289572269 -2.479574 -0 -0 0
128.53596 -29.505608 25.845608 4292272092 -400.86581 0.00033527613 -0.54052734 0
81.864342 77.227432 0 4292209127 -0 0 34056.008 0
59.779591 -35.084946 1.713397 4289572269 -19.177027 0 43.843369 0
162.54117 -19.469761 0 4292209127 0 -0 34056.008 0
32.974491 -24.227036 35.977062 4288594363 18013.973 0 -0 0
112.69638 -33.005516 0 4291881445 0 -0 34056.008 0
32.974491 -12.928944 7.9731131 4291618274 18013.973 0 -0 0
87.969116 -14.071417 0 4290303441 -0 0 34056.008 0
166.59045 78.28714 7.9216013 4288003766 0 -5872.8125 0 0
32.974491 -73.442429 55.642281 4290369747 18013.973 -0 0 0
73.764069 -12.630333 7.6337762 4282674333 -0.3901476 0.0076124528 295.97369 0
109.94379 80.924957 43.641724 4288461750 -154.68748 -0 -0 0
48.370522 -31.682091 74.481415 4292209127 -0 16.287296 0 0
51.129486 4.264924 46.700493 4288649360 0 0 38.634651 0
161.74297 -102.44434 0 4290763992 0 -0 34056.008 0
117.49739 -32.857422 33.215916 4292272092 0 -150.81119 0 0
154.93698 78.28714 83.25605 4288003766 0 -5345.4766 0 0
32.974487 -118.80268 22.937845 4289910223 18013.973 -0 0 0
151.42477 -26.328218 0 4290369747 0 -0 34056.008 0
32.974491 -98.098007 19.275711 4289515465 18013.973 -0 0 0
61.641647 78.287132 8.1754665 4288003766 0 -5872.8125 0 0
179.32437 78.287132 73.99437 4288200636 0 -8645.8594 -0 0
56.811211 78.287132 18.678699 4288003766 0 -5872.8125 0 0
52.962105 26.328953 58.250835 4292530632 -0.59989917 22.390825 0 0
48.875935 82.037132 79.161987 4288003766 0 -1589.2924 0 0
63.548462 82.037132 79.064758 4288003766 -0 -1589.2924 -0 0
32.974491 42.645237 12.196042 4289976529 18013.973 0 -0 0
32.974491 19.519314 94.576073 4291618274 18013.973 -0 0 0
102.09918 61.871361 0 4290696401 -0 0 34056.008 0
32.974491 -75.876297 0.91390145 4289582541 1187.4786 0 -0 0
82.390129 -11.437435 34.190208 4292272092 10.833129 -0.03608644 55.850353 0
45.711433 8.9657326 0 4292209127 -0 0 34056.008 0
42.827099 63.474369 0 4292209127 -0 0 34056.008 0
175.84682 78.287132 51.400078 4288398015 0 -8645.8594 -0 0
93.523727 82.037132 69.717468 4288003766 -0 -1585.0012 -0 0
155.75446 -33.723759 0 4291158750 0 -0 34056.008 0
49.773273 82.037132 42.975323 4288003766 0 -1589.2924 0 0
103.01506 -20.999819 0 4289646281 -0 0 34056.008 0
85.607452 16.06284 26.168573 4288586930 0.94072121 -18.926308 0 0
32.974491 -84.849609 24.656803 4290108115 18013.973 -0 0 0
101.45789 -37.787987 0 4292209127 -0 0 34056.008 0
32.974491 55.615829 1.283289 4289582541 1187.4786 0 -0 0
100.02531 82.037132 56.25486 4288003766 0 -1585.0012 0 0
70.419067 78.287132 25.334892 4288003766 0 -5872.8125 0 0
195.99663 -86.988884 0 4290434000 0 -0 34056.008 0
124.7909 -17.660374 37.256817 4292272092 -0.90671468 -0.44446373 687.84271 0
88.123734 -49.229141 0 4291881703 -0 0 34056.008 0
90.492134 41.554504 0 4288463806 -0 0 34056.008 0
202.05405 78.287132 22.151623 4288003766 0 -8645.8594 -0 0
152.36717 -21.78314 0 4291682783 0 -0 34056.008 0
32.974491 23.565201 57.636932 4289779920 18013.973 0 -0 0
32.974491 44.65163 93.730957 4287410602 18013.973 -0 0 0
46.925999 -16.000544 78.424812 4292209127 -177.61469 9.1552734e-05 44.497841 0
32.974491 -99.261742 10.305822 4291555048 18013.973 0 -0 0
63.612221 78.287132 96.672363 4288858566 0 -19.225237 0 0
44.2388 6.9766026 33.510422 4292272092 -27.673405 4.8624563 0 0
32.974491 32.083298 1.0189092 4289582541 1187.4786 0 -0 0
41.633896 -0.96380365 0.75082374 4292272092 39.868061 -29.853991 0 0
32.974491 -57.480888 37.993969 4289185473 18013.973 -0 0 0
187.03401 78.287125 78.180481 4287738284 0 -8645.8594 -0 0
196.87282 78.287125 91.325577 4288003509 0 -8645.8594 -0 0
84.937149 -19.43457 4.4796939 4293591039 0 -148.1846 0 0
141.55005 -33.866463 0 4292209127 0 -0 34056.008 0
65.343597 -31.891445 35.734482 4292272092 -0.080941953 -159.61732 -0.2141571 0
32.974491 -73.228317 1.1297771 4289582541 1187.4786 0 -0 0
175.87384 -40.123375 0 4290434000 0 -0 34056.008 0
63.660347 3.9508743 0 4292209127 -0 0 34056.008 0
78.734184 -4.2553611 35.261314 4292272092 24.751675 -0.03371533 52.159927 0
179.40327 -116.17619 0 4291159263 0 -0 34056.008 0
164.78909 -68.397766 0 4292209127 0 -0 34056.008 0
194.33875 -113.32681 0 4292209127 0 -0 34056.008 0
86.97477 30.483509 39.120773 4288649360 0 -140.10681 -0 0
142.01193 -78.788925 0 4292209127 0 -0 34056.008 0
127.54102 -13.488513 29.927706 4292272092 191.64104 0.0017207563 -2.6616287 0
32.974491 -51.960827 76.994537 4290041809 18013.973 -0 0 0
32.974491 40.178856 87.544037 4289712844 18013.973 -0 0 0
47.167641 -48.941032 0 4292209127 -0 0 34056.008 0
44.481525 -36.32309 51.223557 4292400077 34.99707 0 0 0
67.589058 -45.949429 1.7643445 4289572269 19.177027 0 28.568203 0
204.09258 -20.146706 0 4292209127 0 -0 34056.008 0
48.264091 37.75927 0 4292209127 -0 0 34056.008 0
55.480278 78.287132 101.214 4288003766 -0 -743.63971 -0 0
124.65952 78.287132 18.788389 4288398015 0 -5872.8125 0 0
45.523617 -101.87942 0 4292209127 -0 0 34056.008 0
32.974491 -18.579414 42.505936 4287016614 18013.973 0 -0 0
83.159348 45.488625 0 4292209127 -0 0 34056.008 0
93.745255 16.872707 7.1666312 4288586930 3.4918597 -23.263248 0 0
32.974491 -70.795586 64.493759 4290041809 18013.973 -0 0 0
123.38048 1.3765755 0 4289777867 -0 0 34056.008 0
71.46505 81.08033 88.30085 4288003766 -53.557045 0 0 0
157.9064 27.03759 0 4292209127 -0 0 34056.008 0
102.91393 -30.361399 37.219772 4292272092 -0.90671468 -0.44446373 687.84271 0
55.224472 78.427353 96.391617 4288003766 0 0 -90.238594 0
153.07129 78.287132 27.281982 4288135352 0 -8645.8594 -0 0
40.443806 78.724022 82.619843 4288462007 154.68748 -0 0 0
134.82314 -110.52471 0 4288990150 0 -0 34056.008 0
32.974491 -59.114586 87.307587 4291618531 18013.973 -0 0 0
79.419006 78.287132 35.617584 4288003766 0 -2373.0256 0 0
32.974491 76.114304 60.813946 4289647564 18013.973 0 -0 0
194.2005 78.287132 13.992461 4287410089 0 -8645.8594 -0 0
32.974491 -109.51289 43.099655 4291618273 18013.973 -0 0 0
49.159168 -57.019154 57.961143 4292530632 0.12500064 -0.020024668 5.9767626e-07 0
97.134796 57.903267 0 4289319115 -0 0 34056.008 0
88.602097 -18.025969 0 4288530625 -0 0 34056.008 0
142.61638 78.287132 18.287661 4288003766 0 -5872.8125 0 0
159.0414 78.287132 48.546734 4288003766 0 -8645.8594 -0 0
103.7116 82.037132 60.380417 4288003766 -0 -1585.0012 -0 0
178.04735 6.6718903 0 4291551710 0 -0 34056.008 0
32.974491 54.203831 71.080551 4287607468 18013.973 0 -0 0
53.303116 9.8243504 56.622215 4288649360 -0 0 37.455235 0
32.974491 -54.056034 77.667938 4290304981 18013.973 -0 0 0
122.08543 -116.09273 0 4292209127 0 -0 34056.008 0
186.98236 2.2977333 0 4291288025 0 -0 34056.008 0
64.737946 25.612864 0 4292209127 -0 0 34056.008 0
128.20363 -25.969681 19.825701 4284450243 387.29709 -0.00031501055 0.50776863 0
32.974491 -23.296303 61.863529 4291225313 18013.973 -0 0 0
48.629532 -19.375189 85.224533 4292209127 -49.313255 4.5776367e-05 12.354438 0
39.511616 -51.216774 55.488121 4289572269 -14.155521 -3.3723752 -0.00011415171 0
160.33382 49.992165 0 4289975246 -0 0 34056.008 0
148.28862 27.416695 0 4292209127 -0 0 34056.008 0
183.49384 78.287132 38.641869 4288331704 0 -8645.8594 -0 0
131.15263 -22.847258 27.683884 4292272092 400.86581 -0.00033514202 0.54052734 0
201.28822 -5.1551323 0 4292209127 0 -0 34056.008 0
108.37405 82.037132 61.622932 4288003766 -0 -1585.0012 -0 0
174.05629 -106.7262 0 4292209127 0 -0 34056.008 0
81.513779 63.412014 0 4292209127 -0 0 34056.008 0
32.974491 4.6333046 32.825043 4291617504 18013.973 0 -0 0
92.046867 78.287125 97.541122 4288003766 0 -743.63971 0 0
204.52284 39.448761 0 4292209127 0 -0 34056.008 0
43.490467 -6.557045 34.059109 4292272092 -2.2283542 -0.00038865209 0.6264782 0
71.445084 0.85351562 34.634235 4292272092 0 34.0033 0 0
184.49512 77.081406 0 4288201406 -0 0 34056.008 0
32.974491 -45.551422 76.960571 4291684067 18013.973 -0 0 0
99.942719 82.037125 70.186714 4288003766 -0 -1585.0012 -0 0
105.10306 20.664324 0 4292209127 -0 0 34056.008 0
90.601242 27.504532 40.592178 4288649360 -0 0 213.13171 0
90.301361 41.797955 0 4289185730 -0 0 34056.008 0
128.67865 -9.1824627 34.981102 4292272092 -0.43341541 0.45455885 -0.0005865097 0
118.35808 44.172394 0 4291748319 -0 0 34056.008 0
35.450058 68.256714 0 4291485917 -0 0 34056.008 0
82.590118 78.287132 21.268072 4288593597 0 -5872.8125 0 0
44.703388 -31.024595 34.555252 4292272092 -0.016918778 -0.0073871613 11.879883 0
200.55826 -69.755234 0 4289974989 0 -0 34056.008 0
57.609245 -64.71994 0 4292209127 -0 0 34056.008 0
186.51761 -115.43751 0 4292209127 0 -0 34056.008 0
41.900734 -59.288322 0 4292209127 -0 0 34056.008 0
111.13354 78.28714 88.071556 4288003766 0 -5345.4766 0 0
41.758129 -57.983086 0 4292209127 -0 0 34056.008 0
52.262733 24.222494 43.222275 4292530632 -15.408847 -16.256456 -0 0
104.12631 82.037132 44.899689 4288003766 0 -1585.0012 0 0
46.106895 -3.1500039 33.613441 4292272092 6.8582687 -4.8056245e-06 0.0077342987 0
44.84996 -40.742043 54.513344 4282071867 1.4977771 2.1321473 0 0
32.974491 22.038536 59.367931 4287344296 18013.973 0 -0 0
73.257843 81.019707 80.992844 4288003766 -28.124998 -0 -0 0
73.626282 -32.857422 34.51329 4292272092 0 -34.218456 0 0
32.974491 30.690434 52.1544 4289646024 18013.973 0 -0 0
114.54656 18.804564 0 4289712844 -0 0 34056.008 0
177.85381 29.455647 0 4292209127 0 -0 34056.008 0
147.40961 -82.136345 0 4292209127 0 -0 34056.008 0
193.45235 -41.424622 0 4292209127 0 -0 34056.008 0
32.974491 -93.459648 85.611092 4291684067 18013.973 -0 0 0
32.974491 0.20817184 85.485794 4289514695 18013.973 -0 0 0
80.683685 78.287132 18.806839 4288266429 0 -5872.8125 0 0
202.72916 78.287132 98.567291 4288003766 -0 -743.63971 -0 0
51.751858 -12.04831 89.571228 4292209127 0 43.736477 0 0
131.15613 -21.076622 25.098164 4292272092 400.86581 -0.00033514202 0.54052734 0
43.320518 -55.125999 45.906677 4289572269 0 0 39.631702 0
47.890259 11.861526 56.193443 4288649360 0 26.13092 0 0
202.54317 -29.381577 0 4292209127 0 -0 34056.008 0
114.82327 -47.791924 0 4291552480 0 -0 34056.008 0
127.07951 -2.8890266 0 4292012261 -0 0 34056.008 0
97.428505 82.037132 86.338745 4288003766 -0 -1585.0012 -0 0
55.259758 -15.46734 46.652504 4292272092 -131.21043 -0.054867119 88.424591 0
127.59448 -8.5051889 33.78059 4292272092 184.11789 0.0016528964 -2.5571442 0
32.974491 52.253345 0.66699952 4289582541 1187.4786 0 -0 0
202.07616 -21.778923 0 4291617503 0 -0 34056.008 0
51.497009 -14.82032 22.669603 4292272092 -2.1959066 -0.95553237 1539.5508 0
92.189705 17.653736 39.374092 4288649360 90.828163 -0 0 0
131.15611 -15.106554 25.109608 4292272092 400.86581 -0.00033514202 0.54052734 0
78.655495 29.332165 40.592178 4288649360 -0 0 213.13171 0
173.32492 78.28714 37.466846 4288923328 0 -8645.8594 -0 0
56.451591 -28.52449 0 4290698711 -0 0 34056.008 0
32.974491 -96.328934 85.960754 4287148200 18013.973 -0 0 0
65.875305 82.037125 66.680565 4288003766 -0 -1589.2924 -0 0
143.97368 78.287132 31.114861 4288003766 0 -8645.8594 -0 0
32.974491 -97.603386 19.764101 4289777610 18013.973 -0 0 0
43.494926 -16.794281 23.511604 4292272092 -56.561092 -0.019685727 -0.11823368 0
45.912769 66.626099 0 4292209127 -0 0 34056.008 0
32.974491 54.167824 21.408087 4287804847 18013.973 0 -0 0
97.339348 82.037132 45.566395 4288003766 0 -1585.0012 0 0
83.310822 32.473495 45.522148 4288649360 0 402.55057 -0 0
188.85094 78.287132 69.062263 4288003766 0 -8645.8594 -0 0
32.974491 -71.654533 83.846634 4289185473 18013.973 -0 0 0
147.57193 78.287132 67.438423 4289054662 0 -5345.4766 0 0
32.974491 38.508366 0.31580263 4289582541 1187.4786 0 -0 0
64.428802 -29.882111 0 4288070588 -0 0 34056.008 0
65.892426 -75.187576 0 4289187529 -0 0 34056.008 0
32.974491 -103.23528 76.005928 4291160290 18013.973 -0 0 0
104.61046 24.574394 0 4292209127 -0 0 34056.008 0
70.866432 79.999672 40.141621 4288003766 0 0 156.37498 0
48.83778 82.037132 45.789436 4288003766 0 -1589.2924 0 0
103.96009 -43.527382 0 4292209127 0 -0 34056.008 0
72.889732 16.958256 1.5747786 4288649360 0 -7.4523001 22.676188 0
32.974491 -84.812141 14.506735 4290173908 18013.973 0 -0 0
32.974491 -25.318081 10.321449 4290106575 18013.973 0 -0 0
72.559631 12.428814 0 4292209127 -0 0 34056.008 0
173.38721 78.287132 67.84816 4288135095 0 -8645.8594 -0 0
101.60071 59.924629 0 4291221975 -0 0 34056.008 0
114.15038 -81.122108 0 4290171855 0 -0 34056.008 0
68.372673 -47.319931 20.507462 4289572269 0.68355596 0 0 0
78.693024 -32.071785 0 4292209127 -0 0 34056.008 0
32.974491 -111.12834 5.5149035 4289582541 1187.4786 -0 0 0
173.58916 76.784668 0 4289976016 -0 0 34056.008 0
199.80319 -106.49203 0 4290237133 0 -0 34056.008 0
92.428238 60.35508 0 4292209127 -0 0 34056.008 0
58.881981 -19.99365 22.676928 4291680474 -2.1959066 -0.95553237 1539.5508 0
104.81979 -111.67451 0 4289844430 0 -0 34056.008 0
130.62558 -59.624695 0 4292209127 0 -0 34056.008 0
142.91447 78.287132 12.340471 4287870640 0 -5872.8125 0 0
32.974491 -14.260067 84.073723 4291618274 18013.973 -0 0 0
114.73983 -83.622681 0 4292209127 0 -0 34056.008 0
98.552841 -12.148501 7.5659251 4284255169 -0.030698672 6.2276955 23.28862 0
191.63051 78.287132 48.665222 4288003766 0 -8645.8594 -0 0
32.974491 -14.978191 60.702469 4291814370 18013.973 -0 0 0
99.577614 -54.61454 0 4290696401 0 -0 34056.008 0
112.28831 -96.241493 0 4292209127 0 -0 34056.008 0
43.491959 -18.972376 26.140808 4292272092 -282.08896 -0.098321348 -0.36045647 0
112.54747 -3.6476543 37.249733 4292272092 -0.90671468 -0.44446373 687.84271 0
32.974491 71.395729 77.861984 4289711304 18013.973 0 -0 0
32.974491 -31.512547 39.805485 4291289566 18013.973 0 -0 0
110.88197 -25.299107 37.233543 4292272092 -0.90671468 -0.44446373 687.84271 0
92.189697 19.734194 38.658802 4288649360 90.828163 -0 0 0
144.58963 78.287132 53.736134 4288003766 0 -8645.8594 -0 0
43.451778 4.7700701 2.1037562 4292272092 -37.374943 27.98715 0 0
109.0593 -92.214722 0 4290501590 0 -0 34056.008 0
194.20328 44.886925 0 4290433999 0 -0 34056.008 0
34.924911 -9.1781988 0 4289647051 -0 0 34056.008 0
32.974491 -66.241402 36.459221 4289844430 18013.973 -0 0 0
70.36335 17.234348 49.811562 4288649360 0.13781589 -0.077571005 0.011704136 0
89.163704 -73.49868 0 4292209127 0 -0 34056.008 0
51.831684 78.28714 35.749989 4288003766 0 -5872.8125 0 0
174.34293 -111.11082 0 4291814112 0 -0 34056.008 0
157.12297 78.287132 90.037949 4289053887 0 -5345.4766 0 0
134.96202 -102.92229 0 4289452241 0 -0 34056.008 0
203.42522 -98.786865 0 4292078824 0 -0 34056.008 0
84.007103 32.473499 24.185404 4288649360 0 402.55057 0 0
127.57898 -13.581946 32.660595 4292272092 184.11789 0.0016528964 -2.5571442 0
32.974491 -54.566814 15.872177 4289844430 18013.973 0 -0 0
32.974491 74.860016 60.758755 4289581771 18013.973 0 -0 0
117.53964 -32.108082 0 4292209127 0 -0 34056.008 0
58.930721 -31.892406 38.874306 4292272092 -0.080941953 -159.61732 -0.2141571 0
170.8224 -94.847206 0 4292209127 0 -0 34056.008 0
186.34344 -12.899506 0 4289909196 0 -0 34056.008 0
73.718895 80.537132 42.644432 4288003766 0 -216.2547 0 0
102.67078 -6.4021606 0 4290500050 -0 0 34056.008 0
44.061546 -35.525677 40.188766 4294967295 0 18.866583 0 0
198.69324 78.287132 46.894871 4288134325 0 -8645.8594 -0 0
61.350285 1.5477161 0 4291092956 -0 0 34056.008 0
134.05447 -73.026886 0 4289385934 0 -0 34056.008 0
88.804718 -67.874809 0 4291156952 0 -0 34056.008 0
84.550003 32.473499 40.106895 4288649360 0 402.55057 -0 0
144.29822 78.287132 74.316589 4288003766 0 -5345.4766 0 0
94.401108 82.03714 44.098232 4288003766 0 -1585.0012 0 0
46.749229 5.8360858 11.69396 4292272092 20.749826 -17.39123 0 0
46.749714 82.037132 93.92363 4288003766 -0 -1589.2924 -0 0
32.974491 35.555733 94.704567 4291618274 18013.973 -0 0 0
34.772648 -77.308807 0 4290367436 -0 0 34056.008 0
41.731922 -39.376667 48.605415 4294967295 10.710232 4.4360018 -0 0
57.859943 78.287132 2.2632558 4289582541 0 -1031.547 0 0
89.290154 82.037132 68.862961 4288003766 0 -1585.0012 0 0
36.553917 78.287132 98.371658 4288003766 0 -743.63971 0 0
56.045078 15.420967 62.23764 4292530632 26.295769 -32.43396 7.6293945e-06 0
196.57123 78.287132 26.934341 4288529083 0 -8645.8594 -0 0
43.51421 78.287132 30.988014 4288003766 0 -5872.8125 0 0
49.572811 -54.436657 52.359352 4280502352 23.230913 -3.7210004 0 0
78.12928 22.688387 27.319069 4288586930 -0 0 295.4776 0
60.841526 82.037132 58.486694 4288003766 0 -1589.2924 0 0
32.974491 -29.688919 25.404264 4291684067 18013.973 0 -0 0
80.614326 -52.170219 0 4292209127 -0 0 34056.008 0
68.960144 82.037132 51.054039 4288003766 -0 -1589.2924 -0 0
203.78654 -110.61997 0 4292209127 0 -0 34056.008 0
32.974491 59.979511 86.59082 4289647051 18013.973 0 -0 0
50.642651 82.037132 54.306797 4288003766 0 -1589.2924 0 0
32.974491 -84.243462 9.9252529 4290041809 18013.973 0 -0 0
32.974491 -85.800858 19.333336 4290502360 18013.973 0 -0 0
109.39407 81.037132 87.97377 4288003766 0 -69.300934 0 0
75.10582 -97.490211 0 4291355614 0 -0 34056.008 0
82.04982 -21.399256 34.249779 4292272092 10.833129 -0.03608644 55.850353 0
119.86184 -17.216457 0 4292209127 -0 0 34056.008 0
32.974491 -0.76228714 2.5318434 4289582541 1187.4786 0 -0 0
114.0722 78.287132 93.274971 4288003766 0 -5345.4766 0 0
32.974491 -4.2132263 30.120798 4289712844 18013.973 0 -0 0
106.69347 30.108643 0 4290633176 -0 0 34056.008 0
176.29166 78.287132 59.274647 4288003766 0 -8645.8594 -0 0
183.5858 78.287132 27.471092 4288200118 0 -8645.8594 -0 0
58.789307 -3.0667744 47.418015 4292272092 332.64557 -0.28441659 476.77878 0
101.42241 -51.426811 0 4291091159 0 -0 34056.008 0
53.491997 -17.644764 44.02803 4292272092 -136.62373 -0.05712226 92.072739 0
32.974491 -43.60878 58.657707 4291880676 18013.973 -0 0 0
74.99118 46.139244 0 4292209127 -0 0 34056.008 0
128.68176 -72.375031 0 4292209127 0 -0 34056.008 0
96.23127 -4.7995076 21.511839 4284711583 0.049787462 36.014133 -0.95021343 0
40.575714 -79.065598 0 4290304211 -0 0 34056.008 0
51.918671 78.287132 5.0884557 4289582541 0 -1031.547 0 0
184.30556 -14.320057 0 4292209127 0 -0 34056.008 0
32.974491 -62.913185 35.957165 4291814883 18013.973 -0 0 0
162.26579 78.287132 52.708271 4288003766 0 -8645.8594 -0 0
95.2845 5.2729626 0 4292209127 -0 0 34056.008 0
63.397491 -109.44491 0 4292209127 0 -0 34056.008 0
167.51398 55.893471 0 4292209127 -0 0 34056.008 0
84.500214 -21.385551 12.006771 4292272092 -0.039989471 -126.1964 -0.0096092224 0
125.03889 -3.9854698 0 4292209127 -0 0 34056.008 0
67.407166 78.287132 23.428274 4288003766 0 -5872.8125 0 0
44.481529 -40.464481 56.861374 4293452765 34.99707 0 0 0
171.54456 -44.204575 0 4292209127 0 -0 34056.008 0
119.46475 -21.314388 0 4290960856 0 -0 34056.008 0
58.565834 -42.553478 0.40151733 4289572269 -16.314728 0 0 0
45.134163 -23.772974 39.593349 4292272092 -0.0059045143 -0.64871943 4.1380177 0
85.747452 31.954716 49.469109 4288586930 -3.6371374 2.7908227 0 0
131.68571 -63.236565 0 4292209127 0 -0 34056.008 0
55.677025 82.037132 82.223747 4288003766 -0 -1589.2924 -0 0
164.91211 78.287132 90.746124 4288003766 0 -5345.4766 0 0
86.424484 30.173351 59.735016 4288586930 -0.52369052 -3.977138 0 0
142.86552 78.287132 1.6489091 4289582541 0 -1031.547 0 0
143.181 -42.921867 0 4292209127 0 -0 34056.008 0
128.21094 -1.9725621 14.27151 4292272092 387.409 -0.00031514093 0.5079155 0
32.974491 -95.105576 39.915455 4291683297 18013.973 -0 0 0
48.712448 -55.292362 45.906677 4289572269 0 0 58.610092 0
32.974491 17.998806 42.066559 4291552481 18013.973 0 -0 0
120.96928 -82.153046 0 4289058512 0 -0 34056.008 0
113.87598 55.91423 0 4292209127 -0 0 34056.008 0
32.974491 -80.136559 17.802677 4289779920 18013.973 0 -0 0
56.748589 13.767847 56.559441 4290953396 -0.073997244 0.10482664 0 0
180.56795 78.287132 73.231613 4288594876 0 -8645.8594 -0 0
124.04599 59.981644 0 4292209127 -0 0 34056.008 0
32.974491 -39.538811 50.067078 4290040782 18013.973 -0 0 0
40.047874 -47.429321 74.906906 4282071867 -4.7557163 0.62613583 0 0
144.43645 -27.848722 0 4292209127 0 -0 34056.008 0
32.974487 -67.416527 32.888531 4290173395 18013.973 -0 0 0
32.974491 -89.056297 78.058777 4289579718 18013.973 -0 0 0
99.008148 -34.357845 0 4292209127 -0 0 34056.008 0
178.1671 25.385582 0 4290107602 0 -0 34056.008 0
32.974495 -22.150234 85.87384 4290173395 18013.973 -0 0 0
54.383003 25.147446 26.510048 4292530632 21.576096 0.57754588 -0 0
135.73627 78.287132 83.150482 4288791742 0 -5345.4766 0 0
51.862892 -2.3035536 42.69725 4292864766 -1.5608461 0.24215755 1.0937834 0
136.73468 78.287132 25.904198 4288003766 0 -2373.0256 0 0
69.91433 -49.456383 0 4292209127 -0 0 34056.008 0
175.2112 -11.497347 0 4292209127 0 -0 34056.008 0
87.535995 17.908339 31.705881 4288586930 0 -35.298561 -0 0
41.695621 -46.988495 0 4292209127 -0 0 34056.008 0
53.685406 26.210663 30.413326 4292530632 10.676425 19.690886 -0 0
32.974491 34.249691 62.510036 4291684067 18013.973 0 -0 0
64.401009 -25.038231 43.48954 4292272092 332.76089 -0.29595172 476.9169 0
86.524727 18.079727 27.319073 4288586930 0 0 27.552673 0
188.58691 -91.179832 0 4291090646 0 -0 34056.008 0
61.159401 -6.1097698 7.368536 4292272092 -125.71413 0.00045547262 17.664585 0
93.477844 78.287132 34.372734 4288003766 0 -2373.0256 0 0
162.28801 69.840263 0 4292209127 -0 0 34056.008 0
127.54903 -2.9775748 30.510941 4292272092 184.11789 0.0016528964 -2.5571442 0
145.13774 78.287132 35.151226 4288660158 0 -8645.8594 -0 0
103.40974 78.287132 31.766418 4288003766 0 -2373.0256 0 0
194.71924 -23.966003 0 4292209127 0 -0 34056.008 0
150.38385 -69.300842 0 4290631379 0 -0 34056.008 0
78.39257 -94.75518 0 4292209127 0 -0 34056.008 0
188.96707 78.287132 95.331993 4288660669 0 -5345.4766 0 0
