# .PCD v0.7 - Point Cloud Data file format
VERSION 0.7
FIELDS x y z rgb normal_x normal_y normal_z curvature
SIZE 4 4 4 4 4 4 4 4
TYPE F F F U F F F F
COUNT 1 1 1 1 1 1 1 1
WIDTH 759
HEIGHT 1
VIEWPOINT 0 0 0 1 0 0 0
POINTS 759
DATA ascii
109.58472 168.47285 139.22044 4284309239 -415.19754 0 -5068.0991 0
11.869113 5.1728463 97.222366 4284309239 0 460.50006 -66.190865 0
63.937515 4.4498124 61.23407 4279569884 0 0 1208.3903 0
130.5988 336.93866 107.69936 4280295456 -14.382198 1.6197562e-05 -0.3366276 0
86.402824 117.71281 140.45201 4284309239 -138.50784 0 -5083.2222 0
20.737543 569.3125 90.166695 4280295456 0 -33.913799 0 0
15.131114 509.62579 62.391972 4280295456 0 3.0520635 50.981277 0
116.08654 263.6857 38 4294967295 -0 0 6647.9629 0
60.373581 44.17757 33.125 4294967295 0 0 430.86865 0
78.394341 79.31562 33.125 4294967295 0 0 1182.2307 0
9.6298208 102.15909 125.88629 4284309239 7378.8384 0 -214.70207 0
96.486816 59.575478 73.748581 4292596929 0 -46.99057 4.903409 0
47.896744 508.27332 140.29744 4284309239 230.8358 0 -5079.8667 0
126.7645 55.57338 137.65376 4284309239 -507.17566 0 -5059.7583 0
7.7486324 256.60175 58.329674 4284309239 2730.2217 0 -0 0
124.86761 360.03082 48.25 4294967295 -0 0 3127.0515 0
90.087112 125.92483 38 4294967295 -0 0 9612.6133 0
57.396767 100.49743 140.59143 4284309239 138.50784 0 -5083.23 0
36.852772 101.42103 139.7368 4284309239 323.06836 0 -5074.8394 0
39.350578 55.690758 139.89581 4284309239 323.06836 0 -5074.8394 0
7.8073606 250.1898 63.252407 4284309239 18.866028 9.8347664e-07 -0.54894227 0
75.910187 448.66028 48.25 4294967295 0 0 17742.016 0
130.11435 494.47174 128.40005 4284309239 -28.461109 -0.00017182529 -0.66518021 0
128.41312 197.63916 38 4294967295 0 0 1989.3092 0
9.1238308 559.88422 108.49651 4284637796 3.827956 -1.3619661e-05 -0.1113821 0
8.9669371 445.19812 103.10444 4280295456 183.77725 0 -5.3473272 0
51.701855 406.39761 62.163837 4280295456 0 -17.464317 -39.369171 0
130.82483 207.10565 98.0401 4280295456 -2221.9556 -0 -51.995728 0
8.2261086 246.52463 77.643852 4284309239 1281.9058 -7.6293945e-06 -37.29966 0
130.27957 514.99792 121.34155 4284309239 -893.46655 -0 -20.9104 0
128.0099 19.462435 75.333832 4284637796 1.1473894e-06 5.8873634 1.5775127 0
91.623428 528.84045 90.819923 4280295456 0 -43.474373 8.4580526 0
20.232281 475.49146 91.933838 4280295456 0 -29.991545 5.8349333 0
54.452168 98.681053 33.125 4294967295 -0 0 2924.2341 0
8.6479874 392.65686 92.14286 4280295456 1538.9808 0 -44.779785 0
114.04141 425.22461 138.85535 4284309239 -415.19754 -0 -5068.0991 0
8.6423922 337.89743 91.950516 4280295456 1770.7115 0 -51.52248 0
117.97891 109.10541 129.38008 4284637796 0 4234.9048 -0 0
122.57384 52.383743 69.422997 4293715664 0 0 17.206017 0
19.355633 373.25076 48.25 4294967295 0 0 3853.658 0
77.021957 277.39734 140.66986 4284309239 -46.163982 -0 -5084.9077 0
38.195053 522.76984 67.181808 4280295456 1.3996297 -0 0 0
106.56054 479.94751 139.43565 4284309239 -323.06836 -0 -5074.8574 0
27.859081 308.10541 55.047417 4280295456 0 1632.609 0 0
8.4719238 473.72672 86.091927 4284637796 1538.9817 0 -44.779808 0
87.97094 426.92041 140.40929 4284309239 -138.50784 -0 -5083.2222 0
56.557823 569.3125 46.87793 4284309239 0 -83.640457 0 0
22.437393 351.48373 138.67479 4284309239 415.19754 0 -5068.1387 0
125.42105 557.83423 137.78842 4284309239 -37.453457 -0 -373.64853 0
131.30127 210.48331 77.680389 4280295456 -2217.2615 -0 -51.886086 0
130.76593 272.89825 100.55753 4284637796 -2221.9556 -0 -51.995728 0
16.185242 70.443359 25.097223 4284309239 -0 -132.80626 -0 0
8.667429 307.6824 92.811035 4284309239 292.13934 -7.6293945e-06 -8.5003891 0
22.339218 519.84729 62.9757 4280032284 0 -7.0857143 50.215687 0
15.696236 569.3125 104.8727 4284309239 -0 -256.90973 -0 0
131.6861 228.45154 46.776127 4284309239 -2053.2366 0 0 0
40.860615 247.35889 52.744911 4280295456 -0.46429408 2.7283163 3.2903333 0
131.6861 392.99063 52.397011 4284309239 -617.67096 0 0 0
85.876503 46.524002 67.303223 4279966493 -6.7016792 0 0 0
46.308529 452.14929 140.22527 4284309239 230.8358 0 -5079.8667 0
129.98232 69.955971 134.04242 4284309239 -7358.8257 -0 -172.21248 0
116.12007 109.10541 58.420525 4284637796 0 4234.9048 -0 0
9.8262148 485.33832 132.63591 4284309239 7378.8384 0 -214.70207 0
126.47878 476.526 48.25 4294967295 0 -0 442.58337 0
9.0897732 320.75772 107.32607 4280295456 801.28754 0 -23.315069 0
9.3170452 104.11795 115.13687 4280295456 801.28735 0 -23.315063 0
130.04443 474.50845 131.38898 4284309239 -859.55511 -0 -20.118687 0
55.609516 569.3125 117.06673 4284309239 0 -22.712736 -0 0
42.233833 149.88525 38 4294967295 0 0 1197.4723 0
8.5847626 527.41748 89.969971 4284637796 15.410727 2.0205975e-05 -0.44840613 0
108.94905 109.10541 74.017448 4284637796 0 4234.9048 -0 0
7.7486334 290.63403 13.326749 4279370963 64.304337 0 0 0
130.74448 97.893555 101.47483 4284309239 -1052.4877 0.0015525818 -24.628441 0
9.6512566 172.00067 126.62296 4284309239 7378.8384 0 -214.70207 0
94.084015 98.818115 136.86459 4284637796 -0 -0 -1267.0085 0
76.399712 518.15942 48.25 4294967295 -0 0 9436.3994 0
8.8028011 182.32411 97.463455 4280295456 2242.1194 0 -65.238998 0
127.10544 348.71973 63.684792 4280295456 0 -3.7566798 37.49921 0
65.800529 196.15608 140.70744 4284309239 46.163982 0 -5084.9019 0
130.03712 311.92667 131.70049 4284309239 -7358.8257 -0 -172.21248 0
74.362793 559.48169 140.694 4284309239 -3.4090767 -0 -375.50574 0
131.18173 34.750332 82.787491 4280295456 -791.30981 -0 -18.517424 0
131.26608 330.29892 79.184959 4280295456 -858.18768 0 -20.082476 0
69.822128 162.42551 140.73523 4284309239 -46.163982 0 -5084.9077 0
130.82547 58.345703 98.012154 4280295456 -959.42981 -0 -22.451595 0
131.65102 522.87158 62.733353 4284309239 -227.94289 -0 -5.3333669 0
131.08615 567.77167 86.871643 4284309239 -166.94321 -0.00060653687 -3.9066024 0
46.227207 306.91791 43.833904 4280295456 0 -1474.907 -0 0
65.64476 279.57898 140.70604 4284309239 46.163982 0 -5084.9019 0
131.24638 190.76279 80.025475 4280295456 -2221.9556 -0 -51.995728 0
131.61462 246.68875 64.290199 4284637796 -2.5699296 -1.0193791e-05 -0.060141422 0
20.162167 309.48041 38.350628 4280295456 0 91.446175 0 0
18.512939 436.841 81.814697 4280295456 0 40.209156 -11.573846 0
48.551147 211.15527 54.15995 4280295456 26.183613 0 66.111923 0
120.93792 182.16653 138.23781 4284309239 -507.17566 0 -5059.7583 0
130.17174 505.60199 125.94894 4284309239 -893.46655 -0 -20.9104 0
7.7486324 264.01291 22.928146 4280295456 1026.1791 -0 0 0
53.239391 417.26416 140.47815 4284309239 138.50784 0 -5083.23 0
95.223938 530.83209 97.877304 4286018303 0 -8993.4971 -0 0
130.50702 385.22147 48.25 4294967295 -0 0 696.80408 0
119.21278 198.75758 63.690132 4278255873 -64.808914 0 6.2947674 0
120.74863 105.56603 82.542686 4284637796 -3219.7708 -0 -0 0
9.0894241 487.97974 107.3141 4284637796 714.83368 0 -20.799524 0
89.46254 321.77081 140.35759 4284309239 -230.8358 0 -5079.8745 0
120.15762 436.02484 78.590881 4280295456 0 40.548386 -9.0595722 0
72.785263 394.21826 48.25 4294967295 0 0 17742.016 0
46.406029 118.58323 33.125 4294967295 -0 0 942.9328 0
8.7016039 549.86621 93.985535 4284637796 11.141186 0 -0.32417473 0
124.64433 440.80267 93.251358 4280295456 0 22.163591 38.978786 0
107.82927 58.760899 65.942299 4282664263 0 -344.21494 35.918411 0
29.916176 372.34399 48.25 4294967295 -0 0 254.06787 0
9.5117683 391.8226 121.82912 4284309239 208.27461 0 -6.0612092 0
8.3210144 356.11938 80.905487 4280295456 18.21302 1.8648803e-05 -0.52990568 0
36.35685 274.42603 139.70523 4284309239 323.06836 0 -5074.8394 0
52.683746 315.22787 39.383663 4294967295 9.609375 -0 0 0
92.110458 195.33255 140.23724 4284309239 -230.8358 0 -5079.8745 0
8.7278461 264.54852 94.887444 4280295456 8.7737226 1.6659498e-05 -0.25528932 0
97.608795 139.20358 53.963188 4278453252 -6.9033976 0 2.9539435 0
9.7735806 233.56447 130.82698 4284309239 7378.8384 0 -214.70207 0
84.242035 261.62814 140.51088 4284309239 -138.50784 -0 -5083.2222 0
43.067978 186.3331 54.090584 4280295456 -9.0737648 0 49.605659 0
27.322659 142.5117 53.635788 4280032284 7.0857139 0 50.215359 0
61.048313 22.358631 33.891647 4294967295 -141.23625 0 0 0
9.0656452 84.10363 106.49685 4284309239 430.92447 0 -12.538606 0
131.14545 322.25073 84.339874 4280295456 -858.18768 0 -20.082476 0
122.93137 77.430351 138.03799 4284309239 -507.17566 0 -5059.7583 0
9.9169426 391.7811 135.754 4284309239 7378.8384 0 -214.70207 0
130.104 350.97107 128.84299 4284309239 -732.9585 -0 -17.154394 0
64.047661 569.3125 104.56293 4280295456 0 -51.249802 0 0
93.462486 435.5668 75.948021 4280295456 0 40.804527 -6.5264139 0
111.04028 222.26775 53.301987 4280821800 -3.3174598 0 55.414017 0
95.237091 430.40543 64.211151 4280032284 0 -5.7839327 31.621159 0
130.61792 516.36786 106.88231 4284637796 -693.13715 -0 -16.219831 0
9.5548868 400.1312 37.523911 4294967295 0 31.390619 -0 0
87.410248 8.1863241 61.23407 4284309239 -0 0 1208.3903 0
79.926178 92.425461 125.76029 4284637796 3219.7708 -0 0 0
37.029785 473.3432 63.370617 4280295456 -0 62.720181 9.5777597 0
54.743126 416.93597 140.51913 4284309239 138.50784 0 -5083.23 0
33.707031 47.016079 139.53654 4284309239 323.06836 0 -5074.8394 0
89.987213 515.6322 140.33374 4284309239 -230.8358 -0 -5079.8745 0
8.4016609 175.78833 83.677147 4280295456 2235.762 0 -65.053993 0
78.485542 484.44623 140.65657 4284309239 -46.163982 -0 -5084.9077 0
130.4005 166.66766 116.17381 4280295456 -20.815945 0.00024884939 -0.48711124 0
7.7486329 421.20557 58.180466 4284309239 1119.5743 0 0 0
9.8047104 435.72931 131.89688 4284309239 7378.8384 0 -214.70207 0
116.8867 530.83209 69.613831 4284309239 0 8993.4971 0 0
8.0982981 556.34814 73.251282 4284309239 216.27977 0 -6.2930803 0
11.406197 371.61002 137.60245 4284309239 507.17566 0 -5059.7593 0
129.38722 379.63513 63.339882 4284637796 -0.88874763 0.32818365 3.2759135 0
77.231949 569.3125 108.55273 4284309239 0 -203.94792 0 0
79.92617 97.034035 51.454575 4284637796 3219.7708 0 -0 0
130.3761 116.76311 117.21642 4280295456 -666.84131 -0 -15.604496 0
109.95329 493.63211 139.19025 4284309239 -415.19754 -0 -5068.0991 0
112.52865 7.5718975 61.23407 4284309239 -0 0 1208.3903 0
14.381222 569.3125 47.70369 4284309239 -0 -18.852114 0 0
102.16175 59.322433 38 4294967295 -0 0 2574.8398 0
119.34241 216.65396 65.024734 4278255873 -64.808914 0 6.2947674 0
13.706168 233.65395 137.83299 4284309239 507.17566 0 -5059.7593 0
91.537224 342.50522 140.26331 4284309239 -230.8358 0 -5079.8745 0
39.350983 152.75909 53.551514 4280295456 -5.0765929 0 50.674221 0
117.77909 16.777981 138.54913 4284309239 -415.19754 0 -5068.0991 0
130.30215 193.92108 120.37654 4280295456 -186.05391 -0 -4.3539195 0
130.25291 528.53357 122.47847 4284309239 -480.47635 0.0010147095 -11.243573 0
79.92617 84.822632 40.376362 4284637796 -3219.7708 0 0 0
92.420654 265.59271 140.22316 4284309239 -230.8358 0 -5079.8745 0
95.241814 78.068359 77.401642 4284637796 -0 4234.9048 0 0
125.92467 360.84952 137.73795 4284309239 -507.17566 -0 -5059.7583 0
91.174072 9.75 120.51782 4278191824 0 1940.8938 0 0
30.24118 144.09753 139.3141 4284309239 415.19754 0 -5068.1387 0
7.7486334 353.67798 56.495979 4284309239 1555.0242 0 0 0
130.43274 199.34293 114.79539 4280295456 -801.40723 -0 -18.753422 0
7.7486334 39.693665 58.050468 4280295456 50.522457 0 0 0
122.96199 464.73193 48.25 4294967295 0 0 1010.5076 0
15.17063 530.83209 54.984261 4278322630 0 1418.4009 0 0
69.313667 59.165073 35.622818 4294967295 -163.92563 92.029572 0 0
47.172379 156.4173 140.26453 4284309239 230.8358 0 -5079.8667 0
25.032368 391.30017 63.888672 4285429369 0 -5.2434969 37.159054 0
58.232372 530.83209 108.06036 4284309239 0 -8993.4971 -0 0
17.354954 370.9985 48.25 4294967295 0 0 3853.658 0
91.202942 73.452408 38 4294967295 -0 0 2574.8398 0
129.69798 89.403587 52.190971 4278845650 0 -35.148003 59.793007 0
9.2240267 343.67468 48.25 4294967295 0 0 3853.658 0
12.583693 407.10257 46.727173 4294967295 0 -44.019032 47.824463 0
12.464159 79.888069 61.23407 4284309239 0 -0 1758.7915 0
95.635223 239.39636 38 4294967295 -0 0 9612.6133 0
40.853455 530.83209 73.653137 4284309239 0 7522.3882 0 0
8.615509 87.287254 91.026649 4284309239 430.92447 0 -12.538606 0
12.890649 306.91791 51.069069 4280295456 0 -1560.8263 0 0
106.34828 455.45593 139.44917 4284309239 -323.06836 -0 -5074.8574 0
68.712288 381.32996 48.25 4294967295 0 0 17742.016 0
131.13724 271.28076 84.690414 4284637796 -2221.9556 -0 -51.995728 0
57.191353 206.91772 140.58583 4284309239 138.50784 0 -5083.23 0
98.45993 308.60541 78.190392 4280295456 0 9.9489536 0 0
8.2521267 125.80376 78.53801 4280295456 2235.7622 0 -65.054031 0
107.12976 182.98061 38 4294967295 -0 0 9612.6133 0
130.26463 85.643799 121.98004 4284309239 -32.861771 0.00092917867 -0.79924649 0
8.8980503 515.65265 100.73695 4284637796 1483.7651 0 -43.173199 0
130.76172 138.32962 100.73685 4280295456 -1876.9714 -0 -43.922794 0
29.975634 293.66013 139.29234 4284309239 415.19754 0 -5068.1387 0
130.82758 438.79565 97.923279 4284637796 -1426.101 -0 -33.37146 0
73.372131 224.8779 38 4294967295 0 0 6148.0771 0
26.584387 447.49689 64.334167 4280163870 0 -0.38382798 0.20276667 0
33.173286 36.302513 139.50256 4284309239 323.06836 0 -5074.8394 0
120.9058 83.923035 138.24103 4284309239 -507.17566 0 -5059.7583 0
131.6861 315.96143 52.99836 4284309239 -2053.2366 0 0 0
119.41327 438.08435 85.377274 4280295456 0 39.284775 -16.52681 0
33.340729 146.5634 53.24942 4280295456 1.0183445 0 51.134335 0
130.52777 279.77887 110.73488 4284637796 -14.079697 -4.7050416e-05 -0.32971275 0
18.79628 405.85648 63.226429 4280295456 0 -40.472065 1.3664651 0
120.74863 93.891312 95.233841 4284637796 -3219.7708 -0 -0 0
40.637135 161.53517 38 4294967295 0 0 1197.4723 0
51.042988 33.425522 140.4183 4284309239 138.50784 0 -5083.23 0
116.04005 263.28955 138.69159 4284309239 -415.19754 -0 -5068.0991 0
93.08812 109.10541 72.802399 4284637796 0 -4234.9048 0 0
109.0902 505.46445 139.26096 4284309239 -415.19754 -0 -5068.0991 0
7.7486324 202.95221 41.898312 4284309239 2730.2217 0 -0 0
130.84828 418.91064 97.038643 4284637796 -1426.101 -0 -33.37146 0
8.328577 325.99472 81.165421 4280295456 942.92297 0 -27.436266 0
129.94409 476.63162 135.67599 4284309239 -7358.8257 -0 -172.21248 0
130.41026 206.15765 115.75657 4280295456 -801.40723 -0 -18.753422 0
53.389217 377.039 62.105637 4284637796 3.8654838 -0.14258891 -1.0104923 0
25.886503 425.41632 63.541695 4279966491 0 -3.7566786 37.499199 0
59.367832 531.43146 140.64513 4284309239 10.228404 0 -375.38184 0
113.49998 144.11151 53.088387 4284309239 -0.48934641 0.90221989 4.8847289 0
123.2266 118.3345 138.00839 4284309239 -507.17566 0 -5059.7583 0
66.165085 198.35468 38 4294967295 0 0 6148.0771 0
44.533287 530.83209 112.25001 4278845900 0 -8993.4971 -0 0
120.74863 97.060234 95.99144 4284637796 -3219.7708 -0 -0 0
120.04147 46.864521 57.657349 4281742904 -0 2.2007737 78.568031 0
112.08273 361.85803 139.01581 4284309239 -415.19754 -0 -5068.0991 0
87.849686 41.679039 68.59079 4280887595 0 -0.35484746 2.0373418 0
9.6530809 440.39194 126.68567 4284309239 7378.8384 0 -214.70207 0
130.63232 426.73114 106.26685 4284637796 -618.35199 0 -14.469656 0
55.186134 306.97882 55.124821 4280295456 147.8125 0 0 0
50.651253 398.45078 75.888756 4284637796 -2.9706657 1.9491291 -0.31175029 0
90.694511 199.81487 140.30159 4284309239 -230.8358 0 -5079.8745 0
130.16302 71.346039 63.090126 4284309239 0 23.127441 -0 0
91.254852 109.10541 40.783401 4284637796 0 4234.9048 0 0
86.796349 46.748192 48.732159 4281808697 -1.1487228 0 0 0
7.9831619 217.22696 69.294289 4280295456 2235.762 0 -65.053993 0
8.0350552 2.0284562 71.077751 4284309239 103.85879 3.6843121e-05 -3.0219874 0
24.384464 569.3125 44.70528 4284309239 0 -59.714176 0 0
130.83383 353.86438 97.656219 4280295456 -1611.5881 -0 -37.713135 0
33.789825 78.486 61.234066 4284309239 0 -0 1758.7915 0
9.0828171 98.4608 107.08701 4280295456 801.28735 0 -23.315063 0
7.7486329 279.25522 51.631897 4280295456 1026.1791 0 -0 0
109.76314 220.70743 53.26421 4279966491 -1.1068962 0 55.580692 0
14.749295 219.2419 137.93756 4284309239 507.17566 0 -5059.7593 0
34.980732 336.78369 63.716095 4280295456 0 3.7566791 37.49865 0
120.74863 93.076828 113.08633 4284637796 -3219.7708 -0 -0 0
123.77551 3.274003 84.01181 4284309239 0 2807.4856 -403.53934 0
110.39682 231.90349 52.956108 4278255873 -0.098159909 -0.90222985 4.9290757 0
109.72376 357.23544 86.299034 4280295456 1.4132359 -3.6536765 1.5370951 0
107.67056 292.19754 38 4294967295 -0 0 6647.9629 0
96.820518 78.068359 57.328873 4284637796 0 -4234.9048 -0 0
8.7769775 479.06842 96.575958 4284637796 1483.7651 0 -43.173199 0
83.211227 118.79276 38 4294967295 -0 0 2574.8398 0
94.984154 9.749999 133.03973 4284309239 0 1699.6613 0 0
44.631866 530.83209 134.13132 4284309239 0 -1699.6613 -0 0
123.6861 40.985676 49.623348 4284309239 -1459.7343 0 0 0
48.762291 514.06604 48.25 4294967295 -0 0 9436.3994 0
43.748631 298.36801 32.128242 4294967295 -144.33594 0 0 0
21.758013 172.69655 138.61913 4284309239 415.19754 0 -5068.1387 0
130.38753 565.46771 116.72695 4284309239 -7.6681204 -0.00064480305 -0.17932057 0
34.129841 308.10541 74.174896 4280295456 0 1472.2585 0 0
81.833977 244.39087 140.57649 4284309239 -138.50784 0 -5083.2222 0
84.053284 109.10541 50.267128 4284637796 0 4234.9048 0 0
130.98849 146.33643 91.046165 4280295456 -1842.585 -0 -43.118286 0
108.78709 78.068359 118.27821 4284637796 0 -4234.9048 0 0
29.038879 6.8333502 108.77475 4284309239 0 3203.4507 -460.45413 0
40.865891 530.83209 139.97127 4278190218 0 -25.925896 -0 0
56.62508 37.191448 140.5704 4284309239 138.50784 0 -5083.23 0
106.43624 78.068359 98.425255 4284637796 0 -4234.9048 -0 0
131.62057 391.87872 64.035248 4284309239 -957.50696 -0.00026112795 -22.411724 0
23.55315 308.10541 61.647381 4280295456 0 1632.609 0 0
125.91875 360.13919 92.693199 4280295456 0 -32.17104 6.2589598 0
112.05832 398.39572 75.616867 4284637796 0 40.977238 -3.9802957 0
130.88376 453.3978 95.522491 4284637796 -14.245078 -6.8128109e-05 -0.3333472 0
24.069191 530.83209 114.9852 4284309239 0 8993.4971 0 0
79.871193 100.15691 33.125 4294967295 -0 0 125.03529 0
8.0155945 504.30267 70.408928 4284309239 717.01642 0 -20.86307 0
118.86002 77.151978 138.44609 4284309239 -507.17566 0 -5059.7583 0
85.855133 79.219742 38 4294967295 -0 0 2574.8398 0
7.79107 538.88538 62.692528 4284309239 124.37669 0 -3.6190064 0
15.00598 54.401947 12.25 4294967295 -0 0 619.26959 0
18.981466 251.02126 39.927719 4284637796 0 0 149.81334 0
9.2212448 17.828754 111.84447 4280295456 196.75513 -7.6293945e-06 -5.7249889 0
30.15045 569.3125 133.58087 4284309239 -0 -592.68341 0 0
103.59378 530.979 48.25 4294967295 -0 0 9436.3994 0
35.48867 131.7549 51.431572 4284309239 1782.1891 0 -0 0
130.25105 451.05685 122.56004 4284309239 -893.46655 -0 -20.9104 0
57.2117 456.66962 140.5864 4284309239 138.50784 0 -5083.23 0
16.712078 381.33032 48.25 4294967295 0 0 3853.658 0
88.039001 530.83209 103.36499 4284309239 0 -8993.4971 -0 0
130.55701 538.13312 109.48432 4284637796 -5.0929823 -5.3852797e-05 -0.11917916 0
8.392312 80.641525 83.355881 4283451903 163.67683 0 -4.7625237 0
79.520866 15.47105 57.022739 4284309239 0 3028.8662 -0 0
7.7486334 279.65024 41.742859 4280295456 1026.1791 0 -0 0
130.72508 9.7607002 102.30301 4284309239 -334.14438 -0 -7.8189549 0
8.5666399 482.13025 89.347122 4284637796 1538.9817 0 -44.779808 0
32.427666 252.54291 51.710419 4284637796 0 1632.609 0 0
97.074387 158.38831 54.193607 4284309239 23.837666 0 53.736977 0
115.72983 569.3125 70.780548 4284309239 0 -88.967407 0 0
72.937004 12.858995 69.67157 4294967295 -0 0 709.05243 0
9.5287571 256.31329 122.41296 4284309239 7378.8384 0 -214.70207 0
9.8370495 154.26228 133.0083 4284309239 7378.8384 0 -214.70207 0
8.5961304 221.88623 90.360664 4280295456 2242.1194 0 -65.238998 0
52.011688 308.38995 113.81787 4280295456 -103.14885 0 0 0
131.6861 432.37354 59.522369 4284309239 -1313.6388 0 0 0
33.307327 435.42548 74.636353 4280295456 0 40.977253 -3.9802976 0
55.186131 252.83177 56.862251 4284637796 147.8125 -0 0 0
91.020187 471.16913 140.2868 4284309239 -230.8358 -0 -5079.8745 0
95.74791 13.913292 140.07196 4284309239 -230.8358 0 -5079.8745 0
127.34302 309.68579 137.59578 4284309239 -507.17566 -0 -5059.7583 0
35.488674 74.246727 52.366451 4284309239 1782.1891 -0 0 0
7.7486334 553.14697 47.246849 4284309239 911.75317 0 -0 0
14.94436 551.25287 33.125 4294967295 0 0 4253.0127 0
7.7486334 35.463417 43.897259 4280295456 366.73206 0 -0 0
23.112392 436.56525 80.856598 4280295456 0 40.209156 -11.573846 0
9.2529335 265.15308 112.9335 4280295456 0.34470993 -6.6077337e-07 -0.010030064 0
100.925 458.72656 48.25 4294967295 0 0 17742.016 0
7.7486329 50.289093 15.868999 4280295456 392.25073 0 0 0
120.65657 377.29611 138.26601 4284309239 -507.17566 0 -5059.7583 0
130.96446 170.04263 92.07341 4280295456 -2221.9556 -0 -51.995728 0
131.6861 370.20319 50.201004 4284309239 -617.67096 0 0 0
46.243568 569.5 118.47058 4284309239 0 -259.13391 0 0
96.954582 530.83209 74.459328 4278190232 0 7522.3882 0 0
7.7486334 520.25153 57.278133 4284309239 581.57562 0 -0 0
88.041199 309.48041 38.856491 4280295456 0 91.446175 0 0
121.11594 22.019754 65.789772 4284637796 0 8.9501209 2.3981764 0
16.12652 125.27628 61.23407 4284309239 -0 0 1758.7915 0
41.358509 447.05914 64.215942 4280295456 0 16.228754 36.584278 0
124.82258 468.91541 69.817245 4280295456 0 -44.222973 -1.2185466 0
89.061897 401.98257 87.225189 4284637796 2.9168906 1.8151923 -0.88903856 0
131.02011 548.25177 89.694221 4284637796 -164.14575 1.4476478e-05 -3.841089 0
9.5079699 447.69226 121.69853 4284309239 41.430817 -1.1045486e-06 -1.2052195 0
79.92617 106.95786 94.015083 4284637796 3219.7708 0 -0 0
101.45924 347.48865 139.76039 4284309239 -323.06836 0 -5074.8574 0
130.64 80.74382 105.93913 4284309239 -1099.7522 -0.00030899048 -25.736017 0
7.7486329 568.29968 33.999722 4284309239 43.277058 0 -0 0
104.95113 277.41437 139.53812 4284309239 -323.06836 -0 -5074.8574 0
130.0798 516.43481 129.87735 4284309239 -893.46655 -0 -20.9104 0
107.75398 121.29357 139.35968 4284309239 -323.06836 -0 -5074.8574 0
79.926163 82.789314 42.01474 4284637796 -3219.7708 0 0 0
86.599854 428.41183 140.44664 4284309239 -138.50784 -0 -5083.2222 0
131.16026 346.29874 83.706711 4280295456 -1227.2703 -0.00024986267 -28.719572 0
50.836559 479.20956 48.250004 4294967295 0 0 17742.016 0
95.928764 430.3605 64.202934 4280295456 0 -5.7839327 31.621159 0
8.2151089 421.07016 77.265816 4280295456 1538.9808 0 -44.779785 0
16.681177 569.3125 100.70721 4284309239 -0 -256.90973 -0 0
23.247992 224.36253 60.588257 4280295456 59.760761 0 -1.6470107 0
84.024002 524.3407 140.51683 4284309239 -138.50784 -0 -5083.2222 0
8.4299374 483.38416 84.648987 4284637796 1538.9817 0 -44.779808 0
79.92617 85.109482 35.713989 4294967295 -3219.7708 0 0 0
41.202171 195.15273 139.99323 4284309239 230.8358 0 -5079.8667 0
131.6861 301.18637 56.995338 4284309239 -1313.6388 0 0 0
80.662949 65.297874 38 4294967295 -0 0 2653.1646 0
7.9016991 335.52469 66.494576 4280295456 942.92297 0 -27.436266 0
108.54517 109.10541 90.346512 4284637796 -0 -4234.9048 -0 0
129.99951 56.425823 133.3078 4284309239 -7358.8257 -0 -172.21248 0
63.141052 198.0713 140.6833 4284309239 46.163982 0 -5084.9019 0
104.8411 57.725357 139.5451 4284309239 -323.06836 0 -5074.8574 0
127.62274 198.68285 137.56773 4284309239 -507.17566 -0 -5059.7583 0
130.78421 85.733391 99.776321 4284309239 -1052.4877 0.0015525818 -24.628441 0
57.151699 327.1983 140.58475 4284309239 138.50784 0 -5083.23 0
79.92617 99.361374 97.358154 4284637796 3219.7708 0 -0 0
79.047569 6.8734965 109.05406 4284309239 0 3197.1096 -459.54272 0
29.965027 251.35541 66.364952 4284637796 0 -1560.8263 0 0
118.61285 62.531624 51.900421 4279900700 0 78.363701 0 0
130.95493 269.95911 92.481445 4284637796 -2221.9556 -0 -51.995728 0
11.579729 250.48039 38.506031 4284637796 0 -84.013977 -0 0
88.645279 530.83209 70.901741 4284309239 0 7522.3882 0 0
13.53205 530.83209 67.929184 4284309239 0 7522.3882 0 0
108.53764 369.15616 48.25 4294967295 0 0 1625.6365 0
8.8216162 152.91769 98.110092 4280295456 2242.1201 0 -65.239044 0
69.425781 533.45709 44.869049 4294967295 0 1270.359 -0 0
7.7486324 139.18979 51.173416 4284309239 2913.9639 -0 0 0
114.57063 314.37067 45.273392 4294967295 0 -374.65216 0 0
29.441307 468.89801 70.447937 4280295456 0 -44.222965 -1.2185464 0
88.104103 530.83209 128.16217 4282070268 0 8993.4971 0 0
7.7486334 293.01184 18.05402 4280295456 938.65485 0 -0 0
130.76086 195.59648 100.77386 4280295456 -2221.9556 -0 -51.995728 0
131.6861 209.85898 59.545464 4284309239 -1920.1475 0 0 0
117.25658 530.83209 120.13834 4284309239 0 8993.4971 0 0
54.590538 43.859497 33.125 4294967295 -0 0 942.9328 0
13.273221 37.24818 12.25 4294967295 0 -0 619.26959 0
131.6861 206.58994 49.202427 4284309239 -1726.541 0 0 0
107.00303 101.8213 136.86459 4284637796 -0 -0 -1267.0085 0
120.11803 313.00818 138.31999 4284309239 -507.17566 0 -5059.7583 0
112.36527 395.53177 48.25 4294967295 0 0 1625.6365 0
63.503952 495.96579 140.6866 4284309239 46.163982 0 -5084.9019 0
8.4162617 27.919605 84.17897 4280295456 603.91077 0 -17.572012 0
79.92617 89.553894 48.131721 4284637796 -3219.7708 0 0 0
92.454643 17.569298 76.564774 4284637796 0 -42.383007 158.17581 0
43.937611 50.064674 140.11754 4284309239 230.8358 0 -5079.8667 0
130.29083 535.47266 120.86126 4284309239 -177.40561 0.002571106 -4.151298 0
45.021828 250.48039 80.211945 4284637796 0 -76.592598 0 0
7.7520781 436.89932 61.352478 4284309239 319.59036 0 -9.2992258 0
129.99384 39.035656 133.55046 4284309239 -7358.8257 -0 -172.21248 0
31.970005 254.62108 139.42596 4284309239 323.06836 0 -5074.8394 0
131.11034 130.10579 85.839798 4280295456 -1876.9714 -0 -43.922794 0
81.128242 569.3125 79.86879 4284309239 0 -775.60748 0 0
23.94286 408.18268 64.881973 4280295456 0 19.061651 42.97044 0
25.123631 284.6001 19.054785 4294967295 -819.82812 0 0 0
8.484911 368.21289 86.538261 4280295456 1770.7115 0 -51.52248 0
54.632526 332.89847 48.25 4294967295 0 0 17742.016 0
7.7486324 162.0275 52.107208 4284309239 2913.9639 -0 0 0
12.89247 533.45709 40.058872 4294967295 0 1270.359 0 0
7.7486329 205.17041 45.616211 4284309239 2730.2217 0 -0 0
90.979782 109.10541 72.667358 4284637796 0 -4234.9048 0 0
105.48676 530.83209 109.89217 4284309239 0 -8993.4971 -0 0
60.454208 1.3006667 70.28302 4284309239 0 2742.9507 -394.26328 0
31.691214 286.68188 139.40822 4284309239 323.06836 0 -5074.8394 0
131.6861 148.3181 53.601784 4284309239 -1313.6388 0 0 0
28.046875 530.83209 133.92763 4284309239 0 -1699.6613 -0 0
121.20676 569.3125 50.32822 4278913977 0 -9.0625334 0 0
95.315544 126.1889 140.09161 4284309239 -230.8358 0 -5079.8745 0
131.37749 299.25372 74.423676 4284637796 -2217.2615 -0 -51.886086 0
84.410797 530.83203 121.4684 4281741281 0 -8993.4971 -0 0
9.9177456 313.3446 135.78159 4284309239 7378.8384 0 -214.70207 0
40.153477 7.0863924 110.5352 4284309239 0 3203.4507 -460.45413 0
8.8917332 145.09979 100.51985 4280295456 2242.1201 0 -65.239044 0
86.787735 514.09631 62.401978 4280295456 0 -3.0520632 50.98053 0
104.67201 340.14462 139.55588 4284309239 -323.06836 -0 -5074.8574 0
79.92617 89.819763 89.690445 4284637796 3219.7708 -0 0 0
42.913273 569.3125 137.74632 4284309239 0 -113.75585 -0 0
130.25058 344.5592 122.5786 4284309239 -101.10365 0.00025899708 -2.3695786 0
130.84676 199.53308 97.10347 4280295456 -2221.9556 -0 -51.995728 0
62.146492 28.332958 38 4294967295 0 0 1814.713 0
8.930151 569.3125 42.790714 4284309239 0 -225.80174 0 0
94.076813 28.00736 70.065262 4281677109 0.1000888 0.12654652 -0.10102112 0
75.444626 83.765457 33.125 4294967295 0 0 1182.2307 0
79.160797 569.3125 57.302719 4284309239 0 -103.1657 0 0
130.04062 152.26053 131.5515 4284309239 -7358.8257 -0 -172.21248 0
37.815151 323.14151 139.79807 4284309239 323.06836 0 -5074.8394 0
131.57333 319.97995 66.054276 4280295456 -6.7374229 3.8146973e-06 -0.1576612 0
35.077522 400.25095 83.473701 4284637796 0 39.787861 -14.064905 0
107.59406 307.41791 48.764572 4280295456 0 -1632.609 -0 0
8.4102049 563.94208 83.970833 4284309239 13.316208 -5.0663948e-06 -0.38746321 0
33.522915 361.05917 87.861618 4280295456 0 38.701836 -18.955263 0
89.934402 1.8872788 74.364166 4284309239 0 2807.4856 -403.53934 0
101.13773 109.10541 75.717178 4284637796 0 -4234.9048 0 0
84.860779 282.84845 140.49402 4284309239 -138.50784 -0 -5083.2222 0
101.83649 65.315613 86.099335 4293057221 0 1446.7969 -108.78516 0
49.043003 85.628647 33.125 4294967295 -0 0 942.9328 0
24.206717 370.19357 64.711929 4284637796 0 -19.375874 48.922733 0
102.59532 533.45709 38.868786 4294967295 0 1270.359 0 0
9.1613331 399.07965 109.78544 4280295456 801.28754 0 -23.315126 0
56.884121 134.30853 33.125 4294967295 -0 0 2924.2341 0
131.6861 233.22646 41.378784 4284309239 -1864.267 0 0 0
56.164474 524.53229 83.178459 4280295456 0 -57.893414 20.46604 0
131.19406 450.18304 82.261658 4284637796 -6.0652332 -6.3637272e-05 -0.1419265 0
35.607475 569.3125 68.474312 4284309239 0 -123.8847 0 0
43.454178 473.12482 64.800865 4280295456 -0 62.720181 9.5777597 0
31.759613 528.81958 48.25 4294967295 -0 0 9436.3994 0
90.140945 530.83209 121.3826 4280686314 0 8993.4971 0 0
26.48395 357.42389 75.836227 4280295456 0 40.804527 -6.5264139 0
131.6861 200.55841 52.986698 4284309239 -1313.6388 0 0 0
131.21075 326.53961 81.549255 4280295456 -858.18768 0 -20.082476 0
79.92617 88.430321 118.21951 4284637796 3219.7708 -0 0 0
73.069542 6.2190499 104.50098 4284309239 0 3197.1096 -459.54272 0
79.92617 101.81215 83.386742 4284637796 3219.7708 0 -0 0
131.44232 481.88516 71.652794 4284309239 -671.17218 -0 -15.703966 0
99.196808 537.50543 139.90442 4284309239 -23.857664 0 -374.76358 0
131.6861 562.86511 49.618965 4284309239 -706.94885 0 0 0
130.43991 362.16385 114.49037 4280295456 -729.27985 -0 -17.065617 0
73.327873 488.43777 48.25 4294967295 0 0 17742.016 0
120.74862 84.379097 93.851646 4284637796 -3219.7708 0 0 0
96.323273 109.10541 109.85672 4284637796 0 4234.9048 -0 0
128.14618 524.20972 137.48103 4280426726 -33.346836 -0 -126.52557 0
7.7486324 538.45862 44.338123 4284309239 351.73691 0 0 0
112.12387 109.10541 67.859001 4284637796 0 4234.9048 -0 0
59.808228 569.3125 134.05287 4284309239 -0 -592.68341 0 0
9.6889372 73.677666 127.91795 4284309239 7378.8384 0 -214.70207 0
55.421867 426.60977 140.53763 4284309239 138.50784 0 -5083.23 0
34.492939 306.91791 56.21323 4280295456 0 -1474.907 -0 0
63.994186 69.385254 33.125 4294967295 -0 0 2924.2341 0
14.632028 569.3125 135.93114 4284309239 -0 -592.68341 0 0
8.9096804 467.30005 101.13665 4284637796 1483.7651 0 -43.173199 0
96.913712 369.47427 140.019 4284309239 -230.8358 -0 -5079.8745 0
58.536667 15.47105 45.872005 4284309239 0 1455.3307 -0 0
33.357674 150.4211 38 4294967295 -0 0 5500.9082 0
8.5521135 142.47821 88.8479 4280295456 2242.1201 0 -65.239044 0
107.58474 15.47105 55.795254 4284309239 0 3028.8662 -0 0
34.767864 530.83209 100.72632 4278190231 0 -7522.3882 -0 0
131.61961 109.8445 64.076538 4280295456 -153.63628 -0 -3.595293 0
17.280064 314.3707 42.188416 4294967295 0 -460.58493 0 0
79.926163 79.555298 99.577515 4284637796 -3219.7708 -0 0 0
8.94063 484.19666 102.20031 4284637796 183.77716 0 -5.3473248 0
103.77702 109.10541 112.05681 4284637796 -0 -4234.9048 -0 0
131.12587 345.37146 85.176811 4280295456 -1227.2703 -0.00024986267 -28.719572 0
37.844799 304.54648 139.79996 4284309239 323.06836 0 -5074.8394 0
43.057991 530.83209 111.52893 4278845900 0 8993.4971 0 0
125.24007 569.31256 100.86057 4284309239 0 -123.65964 0 0
7.9525824 491.29877 68.24334 4284309239 717.01642 0 -20.86307 0
23.003853 346.74368 138.72119 4284309239 415.19754 0 -5068.1387 0
98.721611 65.369034 86.809845 4294175184 0 1446.7969 -108.78516 0
27.509523 507.10291 48.25 4294967295 -0 0 9436.3994 0
50.0979 278.58801 38 4294967295 -0 0 559.13208 0
53.356468 140.63051 38 4294967295 0 0 3619.3833 0
9.4547911 390.65286 119.87092 4280295456 186.02664 0 -5.412776 0
115.89982 408.00632 48.25 4294967295 0 0 1625.6365 0
116.27431 419.1004 138.67241 4284309239 -415.19754 -0 -5068.0991 0
24.032658 225.21255 54.156708 4280295456 7.8162189 0 42.730648 0
130.33984 279.91959 118.76572 4284637796 -186.05391 -0 -4.3539195 0
8.8308525 306.04291 80.961555 4280295456 0 -91.446175 0 0
45.360451 555.43762 140.18219 4284309239 17.046558 0 -375.13348 0
9.4582386 459.36258 119.98942 4284637796 2.6061239 -2.1308661e-06 -0.075830363 0
44.848392 263.008 38 4294967295 -0 0 499.40234 0
35.48867 109.4006 51.92662 4284309239 1782.1891 -0 0 0
130.07668 547.70203 130.01065 4284309239 -692.57422 -0 -16.2075 0
79.92617 80.689499 109.58888 4284637796 -3219.7708 -0 0 0
57.671764 485.53088 140.59892 4284309239 138.50784 0 -5083.23 0
77.83519 198.32747 38 4294967295 0 0 6148.0771 0
9.7317581 64.244049 129.38965 4284309239 7378.8384 0 -214.70207 0
121.68367 172.0919 72.926674 4278255873 -5.4930081 1.4132022 1.5811427 0
86.760086 338.27441 62.744637 4280295456 -2.7283363 0.24615183 2.4571273 0
129.0721 523.19702 74.794838 4280295456 -1.4131218 -5.1500812 0.50021648 0
113.92239 64.766296 78.793633 4294242006 0 1446.7969 -108.78516 0
124.54898 432.10062 55.764862 4278190248 -0 5.4658651 51.232777 0
9.3660803 259.2637 28.931938 4294967295 0 362.70309 0 0
116.99429 109.10541 67.75856 4284637796 0 4234.9048 -0 0
131.50999 70.309998 68.759941 4280295456 -886.81323 0 -20.752296 0
130.9615 278.26642 92.199646 4284637796 -2221.9556 -0 -51.995728 0
41.720417 530.83209 119.18752 4284309239 0 -8993.4971 -0 0
120.36391 127.17516 70.748596 4278190080 -63.594463 0 18.305256 0
55.015045 488.82166 48.25 4294967295 -0 0 9436.3994 0
7.7486329 194.33003 44.874207 4284309239 2730.2217 0 -0 0
46.042934 13.665666 140.21321 4284309239 230.8358 0 -5079.8667 0
35.48867 99.671432 49.750793 4284309239 1782.1891 -0 0 0
9.2470779 107.99906 112.73225 4280295456 801.28735 0 -23.315063 0
52.753498 458.99313 48.250004 4294967295 0 0 17742.016 0
35.268791 15.47105 55.985767 4284309239 0 3028.8662 -0 0
131.42729 550.82599 72.293777 4284309239 -885.94299 -0 -20.731455 0
49.14798 96.056229 33.125 4294967295 -0 0 942.9328 0
64.755295 25.452143 140.69795 4284309239 46.163982 0 -5084.9019 0
82.138687 57.64024 140.56821 4284309239 -138.50784 0 -5083.2222 0
104.06476 394.67889 139.59454 4284309239 -323.06836 -0 -5074.8574 0
98.248199 340.91278 48.249996 4294967295 0 0 2988.3672 0
54.136864 530.83209 119.50146 4281873384 0 -8993.4971 -0 0
85.601257 78.068359 88.335419 4284637796 0 -4234.9048 0 0
131.00903 86.612503 90.169342 4284309239 -1099.7522 -0.00030899048 -25.736017 0
16.012938 116.85487 138.06421 4284309239 507.17566 0 -5059.7593 0
32.623955 306.91791 61.551281 4280295456 0 -1560.8263 0 0
130.15352 401.09888 126.72603 4284309239 -101.10365 0.00025899708 -2.3695786 0
98.3899 355.04852 82.275253 4280295456 0 -43.295105 12.462077 0
8.5804043 471.13684 89.820175 4284637796 1538.9817 0 -44.779808 0
43.748631 280.46811 30.018658 4294967295 -144.33594 0 0 0
7.7486329 189.07716 58.492516 4284309239 2913.9639 -0 0 0
131.04909 430.20197 62.952045 4280295456 2.7283125 -0.43996468 2.4052787 0
7.9290037 380.15356 67.432999 4284309239 1052.7924 2.3841858e-06 -30.633152 0
7.9670534 7.9328313 68.740677 4284309239 103.57674 2.2888184e-05 -3.0137768 0
112.10803 359.33466 83.710449 4280295456 0 39.787846 -14.064899 0
22.950354 67.177444 138.71681 4284309239 415.19754 0 -5068.1387 0
33.64645 252.54289 54.788574 4284637796 0 1632.609 0 0
16.458347 0.43032354 64.227905 4284309239 0 460.50006 -66.190865 0
56.522453 59.049469 140.5676 4284309239 138.50784 0 -5083.23 0
105.89182 506.98761 139.47823 4284309239 -323.06836 -0 -5074.8574 0
130.01869 116.1737 132.48801 4284309239 -7358.8257 -0 -172.21248 0
131.05249 492.3996 88.312103 4284637796 -1462.2859 -0 -34.218361 0
61.503021 469.61099 140.66843 4284309239 46.163982 0 -5084.9019 0
9.7356205 374.5448 129.5224 4284309239 7378.8384 0 -214.70207 0
130.24516 284.07965 122.81193 4284309239 -880.86694 -0 -20.616093 0
89.279213 453.20886 48.25 4294967295 0 0 17742.016 0
81.024155 315.3082 38.25045 4294967295 0 -204.29503 0 0
8.4537926 136.35202 85.468819 4280295456 2242.1201 0 -65.239044 0
9.4845114 166.26088 120.89237 4284309239 5.250165 5.0663948e-07 -0.15276954 0
116.61629 109.10541 72.064583 4284637796 0 4234.9048 -0 0
98.393051 398.73807 77.800583 4284637796 0 40.804527 -6.5264139 0
81.913605 458.16705 48.25 4294967295 0 0 17742.016 0
73.057655 419.78583 48.25 4294967295 0 0 17742.016 0
8.0674877 426.56613 72.19239 4284309239 692.8985 0 -20.161304 0
131.57912 106.95812 65.807709 4280295456 -1842.585 -0 -43.118286 0
79.926178 107.67772 97.151146 4284637796 3219.7708 0 -0 0
122.2753 227.02789 76.412315 4278782217 -62.13242 0 26.138683 0
33.755951 246.74734 52.765297 4280295456 -0.066727519 2.7283306 3.3505623 0
21.726496 511.13123 138.61655 4284309239 415.19754 0 -5068.1387 0
9.5567055 198.90088 123.37345 4284309239 7378.8384 0 -214.70207 0
56.358242 280.92902 38 4294967295 -0 0 2576.8896 0
131.6861 240.07637 52.974346 4284309239 -1726.541 0 0 0
91.380325 78.068359 112.18719 4284637796 0 -4234.9048 0 0
62.489975 232.08109 140.6774 4284309239 46.163982 0 -5084.9019 0
51.56781 530.83209 129.43584 4283452159 0 -1699.6613 -0 0
30.004005 362.97687 89.319672 4280295456 -2.3814974 1.4566579 -0.81736612 0
89.138077 129.51566 140.37231 4284309239 -230.8358 0 -5079.8745 0
7.7486334 282.1882 16.271099 4280295456 1026.1791 0 -0 0
57.421597 530.83209 126.97188 4279174362 0 8993.4971 0 0
79.92617 93.273659 95.066315 4284637796 -3219.7708 -0 0 0
98.364441 350.19659 48.25 4294967295 0 0 2988.3672 0
32.723305 306.91791 47.003727 4280295456 0 -1474.907 -0 0
73.701706 9.8258457 69.67157 4294967295 0 0 706.51855 0
25.123631 296.32449 17.255503 4294967295 -819.82812 0 0 0
94.022957 78.068359 51.995411 4284637796 0 -4234.9048 -0 0
131.6861 537.61206 37.849121 4281807868 -305.75641 0 0 0
118.21349 540.38452 33.125 4294967295 0 0 3697.0415 0
8.8577166 359.31009 88.180374 4280295456 -4.0574017 -2.5249956 1.2366762 0
46.171402 569.3125 70.851067 4284309239 -0 -140.86859 0 0
100.84346 326.0976 139.79961 4284309239 -323.06836 0 -5074.8574 0
119.73083 78.068359 106.72256 4284637796 0 4234.9048 -0 0
76.955139 9.75 123.73915 4278191022 0 1940.8938 0 0
7.7486329 29.228148 26.002293 4280295456 177.34549 0 0 0
105.26738 569.3125 102.33463 4284637796 0 -30.417927 0 0
87.529984 5.9672446 102.74911 4284309239 0 3197.1096 -459.54272 0
9.580698 367.01489 124.19805 4284309239 7378.8384 0 -214.70207 0
27.885048 308.10541 62.826813 4280295456 0 1632.609 0 0
126.96048 441.76917 137.63412 4284309239 -507.17566 -0 -5059.7583 0
68.208908 531.44531 87.302696 4280295456 1.3256958 4.5628552 -2.2347145 0
98.366821 105.22305 136.86459 4284637796 -0 -0 -1267.0085 0
112.24394 163.03101 139.00259 4284309239 -415.19754 0 -5068.0991 0
11.581121 395.69934 63.714199 4284637796 0 -8.3188086 36.825378 0
24.126789 513.20483 48.25 4294967295 -0 0 9436.3994 0
103.5177 363.11258 93.004036 4280295456 0 22.163591 38.978783 0
46.801781 235.44315 54.852783 4280295456 23.658731 0 59.736759 0
70.587723 451.12524 48.25 4294967295 0 0 17742.016 0
9.3330288 324.39365 115.68617 4280295456 801.28754 0 -23.315069 0
7.7486334 401.94376 41.035648 4284309239 62.872589 0 0 0
99.672165 109.10541 94.35231 4284637796 0 4234.9048 -0 0
46.605804 312.09155 38 4294967295 -0 0 400.79852 0
35.897263 133.84599 33.99577 4294967295 0 -52.101562 0 0
112.47632 532.93408 91.454147 4280295456 0 31.008905 54.534908 0
131.11951 513.15393 85.448196 4284637796 -1462.2859 -0 -34.218361 0
8.5024061 374.11395 87.139526 4280295456 1770.7115 0 -51.52248 0
84.818932 332.77127 48.250004 4294967295 0 0 2988.3672 0
52.605251 400.36813 81.012436 4284637796 1.3367584 3.5374231 -1.018205 0
113.69971 307.41791 75.758202 4280295456 0 -1472.2585 0 0
122.12424 212.57303 76.053268 4278255873 -62.13242 0 26.138683 0
49.063107 440.60349 91.186195 4280295456 0 0.66647261 6.4887209 0
130.03163 379.784 131.93527 4284309239 -7358.8257 -0 -172.21248 0
32.884048 465.62152 139.48416 4284309239 323.06836 0 -5074.8394 0
123.77803 474.98654 84.140137 4280295456 0 39.787846 -14.064899 0
65.407768 515.57434 48.25 4294967295 -0 0 9436.3994 0
7.9894214 265.32138 69.50943 4280295456 13.23985 5.3048134e-06 -0.38524044 0
107.06926 569.3125 109.72904 4284309239 0 -146.08539 0 0
9.1440992 344.58746 109.19312 4280295456 20.022171 2.220273e-06 -0.58259869 0
120.01962 389.52496 63.665283 4292136656 0 -3.7566798 37.49921 0
123.6861 52.42907 61.090885 4284309239 -1459.7343 -0 0 0
36.746941 359.4628 84.072922 4280295456 0 39.787861 -14.064905 0
103.3746 178.92865 139.63846 4284309239 -323.06836 0 -5074.8574 0
93.827423 142.96059 38 4294967295 -0 0 9612.6133 0
131.6861 340.94141 51.070278 4284309239 -1109.8287 0 0 0
130.38197 65.919746 116.96397 4280295456 -642.07446 -0 -15.024938 0
25.123631 279.51025 26.785833 4294967295 -819.82812 -0 0 0
22.788559 528.6825 138.70355 4284309239 415.19754 0 -5068.1387 0
7.7486324 338.27222 48.511234 4284309239 617.67096 0 -0 0
103.18684 569.3125 33.706177 4284309239 0 -472.52386 0 0
129.97534 30.950161 134.3403 4284309239 -7358.8257 -0 -172.21248 0
29.305935 461.51154 63.45755 4280295456 0 -2.2585268 37.725594 0
12.069581 535.98346 137.66895 4284309239 37.453457 0 -373.64862 0
26.740414 293.76221 139.02731 4284309239 415.19754 0 -5068.1387 0
9.9032707 194.41356 135.28412 4284309239 7378.8384 0 -214.70207 0
104.65958 342.71692 63.359512 4280295456 0 0.75357485 37.839336 0
37.121895 252.54288 70.121719 4284637796 0 1472.2585 0 0
16.314131 357.66479 138.09441 4284309239 507.17566 0 -5059.7593 0
101.79385 4.5850434 93.132935 4284309239 0 3197.1096 -459.54272 0
10.689146 54.877903 137.43402 4278190228 42.888134 0 -68.115921 0
130.4798 302.22446 112.78486 4284637796 -801.40723 -0 -18.753422 0
24.784893 474.59827 83.041794 4280295456 0 39.787861 -14.064905 0
7.854269 262.38245 64.86454 4280295456 2.395005 -1.5497208e-06 -0.06968683 0
86.419067 339.30258 62.294029 4280295456 -2.7283306 0.147989 2.4719708 0
11.382203 400.48541 35.771477 4283057907 0 -31.390619 13.333318 0
124.40376 480.80951 48.25 4294967295 0 0 1010.5076 0
24.600191 2.7865586 80.62059 4284309239 0 3203.4507 -460.45413 0
116.91904 314.3707 41.270687 4294967295 0 -374.65216 -0 0
56.319504 1.2607734 70.00547 4284309239 0 2742.9507 -394.26328 0
118.82619 68.770943 138.44948 4284309239 -507.17566 0 -5059.7583 0
8.4290314 532.03882 84.617859 4284309239 378.34372 0.00010681152 -11.008684 0
102.96481 79.581429 139.66455 4284309239 -323.06836 0 -5074.8574 0
102.02916 566.46112 139.72412 4284309239 -23.857664 -0 -374.76358 0
48.916145 424.35968 63.470909 4280098077 0 -2.258527 37.725597 0
130.39697 535.49768 116.32468 4284309239 -177.40561 0.002571106 -4.151298 0
121.71918 130.23967 75.018921 4278255873 -62.92762 0 22.244884 0
9.8867817 468.00116 134.71745 4284309239 7378.8384 0 -214.70207 0
93.443634 246.65491 140.17667 4284309239 -230.8358 0 -5079.8745 0
76.028183 533.45709 37.142162 4294967295 0 604.19513 -0 0
69.196167 405.55194 140.73828 4284309239 46.163982 0 -5084.9019 0
131.6861 216.36237 53.471508 4284309239 -1313.6388 0 0 0
11.83437 308.10541 78.323822 4280295456 0 1472.2585 0 0
130.71756 469.73822 102.62447 4284637796 -158.97308 0 -3.7207704 0
40.215591 355.52881 83.808144 4280295456 0 -42.841137 15.14432 0
98.450478 109.10541 38.456886 4284637796 0 -4234.9048 0 0
112.74533 530.83209 136.2354 4278190237 0 26.113928 0 0
69.274063 502.09045 63.16761 4280295456 2.6120358 0.56922543 3.1118386 0
128.95833 375.62952 63.703815 4284637796 -0.90221661 0.46500981 3.2954335 0
38.786297 45.85199 33.125 4294967295 -0 0 582.33691 0
17.126373 569.3125 104.19656 4284309239 -0 -256.90973 -0 0
128.95143 408.7265 64.640747 4280295456 0 19.061659 42.970455 0
8.9273958 292.06732 101.74553 4280295456 466.76382 0 -13.581441 0
100.75465 308.60541 74.069153 4280295456 0 1560.8263 -0 0
120.12575 9.75 138.18939 4284309239 0 94.853935 0 0
34.110474 466.84329 139.56223 4284309239 323.06836 0 -5074.8394 0
14.962214 279.91016 137.95889 4284309239 507.17566 0 -5059.7593 0
42.752735 308.10541 65.449127 4280295456 0 1472.2585 0 0
108.93879 174.67583 53.247795 4279308561 -1.1068962 0 55.580692 0
127.1346 353.49307 68.144577 4280295456 0 -25.259583 -2.2725592 0
130.70274 303.77698 103.25732 4284637796 -183.80475 -0 -4.3011889 0
35.362354 75.555016 61.23407 4284309239 0 -0 1758.7915 0
22.237349 44.155823 138.6584 4284309239 415.19754 0 -5068.1387 0
130.36646 559.27466 117.62671 4284637796 -52.043278 2.912432e-05 -1.2178223 0
103.19764 563.84076 33.125 4294967295 0 0 3697.0415 0
25.123632 285.46277 23.796429 4294967295 -819.82812 -0 0 0
23.547153 404.29724 48.25 4294967295 -0 0 1234.7386 0
106.57274 9.8140373 69.67157 4294967295 0 0 706.51855 0
17.747593 308.10541 61.771915 4280295456 0 1632.609 0 0
130.74959 302.51892 101.25549 4284637796 -2221.9556 -0 -51.995728 0
87.436737 109.10541 76.186203 4284637796 0 -4234.9048 0 0
106.5497 231.61852 38 4294967295 0 0 1464.7976 0
70.232216 530.83203 135.74112 4279636172 0 -1699.6613 -0 0
43.329815 229.77054 54.138481 4280295456 -9.0737648 0 49.605659 0
28.902317 363.58453 139.20442 4284309239 415.19754 0 -5068.1387 0
8.0778666 216.284 72.549042 4280295456 2235.762 0 -65.053993 0
104.73219 500.53104 48.25 4294967295 0 0 17742.016 0
12.13065 397.77353 137.67506 4284309239 507.17566 0 -5059.7593 0
131.6861 151.74178 40.682106 4284309239 -1109.8287 0 0 0
27.483013 306.91791 42.806648 4280295456 0 -1474.907 -0 0
122.87594 478.58704 90.863678 4280295456 0 2.0793896 20.245422 0
110.27504 2.9066501 81.456085 4284309239 0 2807.4856 -403.53934 0
88.81192 78.068359 113.36676 4284637796 0 -4234.9048 0 0
42.803135 222.68988 38 4294967295 -0 0 5500.9082 0
20.862616 547.53406 138.54578 4284309239 30.661139 0 -374.26743 0
8.39571 10.876968 83.472656 4284309239 354.5799 3.0517578e-05 -10.317217 0
36.478645 569.3125 36.426285 4284309239 0 -511.30176 0 0
7.7486324 552.86414 35.903496 4284309239 911.75317 0 -0 0
107.23239 400.28638 81.986099 4284637796 -2.9706676 1.9206897 -0.55285335 0
51.935902 504.44086 62.872234 4280032284 0 7.0857139 50.215683 0
10.450107 2.0444524 75.457649 4284309239 0 145.44748 -20.906174 0
55.466499 154.81133 140.53885 4284309239 138.50784 0 -5083.23 0
125.7229 307.41791 50.442825 4280295456 0 -1632.609 -0 0
123.6861 53.952194 56.547264 4284309239 -1459.7343 -0 0 0
130.46989 66.695198 113.20664 4280295456 -642.07446 -0 -15.024938 0
120.7486 91.353386 46.920296 4279965423 -250.78761 0 -0 0
127.41081 524.37451 64.354965 4280295456 0 -56.908962 -8.6894665 0
59.470493 84.867317 140.64793 4284309239 138.50784 0 -5083.23 0
27.778423 317.25696 139.11235 4284309239 415.19754 0 -5068.1387 0
21.120071 142.16011 73.666077 4279966491 57.893414 0 20.4652 0
72.828239 523.36139 76.577934 4280295456 1.4131242 -5.1284037 0.82025945 0
65.05732 8.2600899 118.70082 4284309239 0 220.34819 -31.67164 0
54.057579 250.48039 67.635254 4284637796 0 -68.038338 0 0
35.311131 60.834328 23.789894 4294967295 -502.78137 0 0 0
120.74863 108.49354 114.27676 4284637796 -3219.7708 -0 -0 0
130.88948 292.47049 95.277725 4284637796 -2221.9556 -0 -51.995728 0
128.90024 358.2485 67.446587 4280295456 -2.9168634 1.9226171 0.17293105 0
130.15097 497.5553 126.83589 4284309239 -893.46655 -0 -20.9104 0
131.6861 177.85545 60.086205 4284309239 -1920.1475 0 0 0
67.778046 445.09839 48.249996 4294967295 0 0 17742.016 0
20.428635 530.83209 134.94046 4279045047 0 1699.6613 0 0
61.22826 173.51857 38 4294967295 0 0 3619.3833 0
125.52355 530.83209 78.302498 4278583513 0 8993.4971 0 0
79.926178 82.412567 110.95603 4284637796 -3219.7708 -0 0 0
120.65991 397.87201 87.284042 4287072913 0 -42.299774 17.795088 0
63.963593 86.190132 33.125 4294967295 -0 0 2924.2341 0
11.362761 412.28177 137.5981 4284309239 507.17566 0 -5059.7593 0
42.840847 433.05078 48.25 4294967295 0 0 17742.016 0
130.28815 330.91559 120.9745 4284309239 -40.571144 0.0003862977 -0.95468998 0
119.99187 208.20857 69.095879 4278255873 -64.130516 0 14.328316 0
124.82309 418.35806 63.431885 4280098077 0 2.2585275 37.726154 0
19.382092 15.471051 48.969044 4284309239 0 774.75616 0 0
130.38524 247.40929 116.82589 4284637796 -17.271391 -3.2149255e-05 -0.4043265 0
35.48867 118.04539 51.262371 4284309239 1782.1891 0 -0 0
59.804615 358.93286 140.65302 4284309239 46.163982 0 -5084.9019 0
